ply
format ascii 1.0
comment Author: CloudCompare (TELECOM PARISTECH/EDF R&D)
obj_info Generated by CloudCompare!
element vertex 1547
property float x
property float y
property float z
property float scalar_intensity
end_header
-76.56 87.068 -75.8787 0.5 
-33.3073 244.718 -69.3315 0.5 
60.7482 232.076 -55.6815 0.5 
55.9785 233.143 -56.776 0.5 
-18.3213 235.743 -84.9025 0.5 
62.5525 212.53 -60.191 0.5 
34.975 266.488 -47.175 0.5 
-86.358 287.445 -39.1725 0.5 
-122.383 294.51 -36.4465 0.5 
-75.2345 119.25 -62.2253 0.5 
-13.6594 294.96 -37.594 0.5 
-16.2215 295.055 -37.6865 0.5 
-18.9765 294.918 -37.5257 0.5 
31.2857 304.67 -28.358 0.473055 
-77.123 304.845 -17.3904 0.5 
-46.9198 85.4635 -69.2375 0 
-91.6435 433.333 -29.701 0.5 
-88.21 434.952 -31.5737 0.5 
-84.699 436.758 -33.673 0.5 
-80.9082 438.582 -35.7673 0.5 
-77.5062 440.212 -37.6715 0.5 
-73.667 442.265 -40.0143 0.5 
-70.2698 443.895 -41.9275 0.5 
-66.6562 445.853 -44.204 0.5 
-62.8133 447.913 -46.5415 0.5 
-58.9875 450.212 -49.1893 0.5 
131.898 173.367 6.25785 0.5 
-10.7084 310.495 -24.2459 0.5 
-68.32 237.779 -62.1592 0.468326 
-108.385 280.698 -41.9878 0.5 
-38.5153 463.688 -64.0225 0.349202 
-36.2192 463.615 -64.4255 0.329781 
-66.761 396.895 -30.3665 0.5 
-18.6178 240.254 -79.507 0.5 
-68.625 275.767 -46.9705 0.5 
50.726 228.129 -61.55 0.5 
49.6597 299.2 -22.4263 0.5 
52.0112 298.615 -21.8114 0.5 
-67.22 86.0787 -72.6178 0 
-100.752 305.515 -28.1165 0.5 
32.4965 311.77 -16.0091 0.409001 
134.271 167.724 2.02115 0.453983 
28.1122 235.793 -69.6338 0.473679 
30.413 235.11 -68.9003 0.5 
40.7105 297.452 -30.5807 0.466677 
82.213 282.717 -9.60985 0.461284 
40.955 222.2 -70.4055 0.5 
84.5618 272.073 -18.2051 0.5 
88.3185 269.042 -14.9158 0.456568 
-19.7415 245.527 -70.0827 0.411612 
-18.8054 305.305 -28.5795 0.5 
-83.2128 92.1145 -76.5352 0.5 
38.958 223.402 -71.7117 0.5 
-128.016 314.068 -16.7624 0.5 
-13.4721 305.312 -28.6392 0.5 
-24.2546 302.432 -30.4622 0.5 
-93.866 298.38 -30.6003 0.5 
19.6945 247.352 -56.9178 0.5 
69.6437 274.23 -30.5835 0.443888 
-34.5805 264.987 -56.074 0.5 
-98.9895 296.217 -33.3423 0.5 
-94.0218 295.53 -32.6045 0.5 
58.9503 294.175 -22.035 0.5 
-88.8175 287.835 -39.59 0.5 
13.5801 298.673 -36.7542 0.471855 
-103.824 297.135 -34.3232 0.5 
-11.0434 294.902 -37.5228 0.468249 
-27.8053 245.174 -69.781 0.5 
25.3193 227.895 -76.453 0.5 
-29.7117 294.723 -37.2308 0.5 
49.917 289.767 -32.297 0.5 
-46.1268 293.543 -35.8285 0.5 
-49.073 292.913 -35.146 0.5 
-91.897 430.183 -31.2607 0.5 
-88.4437 431.777 -33.1125 0.5 
-84.893 433.798 -35.476 0.5 
-81.2977 435.297 -37.1585 0.5 
-77.856 436.902 -39.0225 0.5 
-74.1435 438.81 -41.182 0.5 
-70.7345 440.428 -43.0945 0.5 
-66.9088 442.507 -45.4298 0.5 
-118.81 281.017 -42.3132 0.5 
-97.0765 282.128 -43.5667 0.470351 
-94.4213 282.163 -43.6183 0.5 
-51.9182 292.522 -34.6958 0.5 
-144.803 302.13 -23.9808 0.5 
-54.577 292.503 -34.6513 0.5 
-39.072 460.108 -65.7192 0.5 
-35.7235 461.57 -67.0758 0.387185 
-32.9787 461.635 -67.208 0.35877 
-57.242 292.57 -34.6955 0.5 
91.7795 230.082 -33.481 0.5 
65.3767 230.766 -54.279 0.5 
37.27 265.772 -46.4778 0.5 
46.0675 229.426 -62.9308 0.355582 
88.1265 253.678 -28.5625 0.475617 
-18.9619 242.13 -76.4555 0.5 
-39.0085 243.87 -68.4743 0.5 
-21.632 307.505 -25.8813 0.5 
-59.8985 292.56 -34.6712 0.5 
143.462 167.577 7.30912 0.5 
-19.0276 282.36 -49.125 0.5 
64.4685 223.964 -57.0623 0.5 
-42.2738 94.9382 -68.348 0.473204 
-10.9029 305.147 -28.4823 0.5 
-30.3438 255.32 -60.3175 0.5 
90.9153 218.251 -41.0882 0.5 
35.4135 287.515 -39.8088 0.447499 
-147.72 111.481 -12.9328 0.370334 
-45.5547 238.694 -78.1537 0.454288 
-88.7005 91.4827 -75.794 0.369641 
-77.6698 108.999 -72.6115 0.49112 
-78.4975 292.413 -34.3862 0.5 
-163.391 387.75 14.1147 0.5 
-161.04 387.49 14.6631 0.5 
-158.399 387.555 14.5871 0.5 
-91.4832 292.83 -34.7855 0.5 
-94.0287 293.05 -35.0095 0.5 
-21.8784 291.905 -39.295 0.5 
-143.969 395.172 5.05875 0.5 
54.003 282.408 -34.3737 0.461992 
-113.701 280.663 -41.944 0.5 
-100.055 278.832 -45.0805 0.467516 
-129.505 278.372 -44.7307 0.434005 
21.2574 295.828 -38.7503 0.5 
-0.138864 298 -35.9222 0.289692 
-18.6551 312.99 -21.8573 0.5 
-110.717 417.01 -21.3458 0.5 
-107 419.155 -23.8192 0.5 
-89.1067 282.19 -43.66 0.5 
-99.5868 422.995 -28.175 0.5 
-95.785 425.085 -30.5417 0.479359 
-92.3135 426.68 -32.364 0.5 
-88.7375 428.435 -34.3735 0.5 
-85.4667 430.135 -36.473 0.440615 
-69.572 306.483 -14.2041 0.461966 
-155.895 430.77 -154.684 0.5 
-91.7482 312.393 -15.3769 0.5 
-131.678 281.538 -42.7525 0.5 
-126.298 281.812 -43.096 0.5 
-121.28 281.34 -42.6292 0.5 
-67.019 306.348 -14.0547 0.5 
-64.3595 306.4 -14.1111 0.5 
-86.5472 282.06 -43.551 0.5 
-153.416 107.633 -14.3581 0.5 
-150.405 108.448 -15.1693 0.404197 
-83.8915 282.05 -43.5387 0.5 
-36.0197 458.332 -68.8948 0.5 
-33.0983 459.25 -69.7113 0.362653 
-102.672 281.45 -42.805 0.5 
-81.237 282.095 -43.612 0.5 
-8.3378 314.908 -19.0045 0.5 
4.19077 263.342 -53.8787 0.5 
-76.4762 298.698 -25.9255 0.5 
-13.5471 242.278 -76.6497 0.334552 
-21.5154 242.2 -76.6022 0.5 
-49.2463 239.484 -73.9457 0.5 
-29.7693 223.701 -92.7442 0.5 
134.425 170.611 4.08173 0.479058 
126.743 171.026 3.60043 0.5 
-24.6203 281.643 -48.3555 0.5 
19.9624 222.703 -81.0732 0.5 
48.1432 225.81 -64.046 0.5 
-62.9795 279.038 -45.4258 0.5 
-65.8828 281.1 -42.5805 0.5 
-24.8962 283.75 -45.5568 0.27471 
-22.009 284.082 -45.9498 0.285649 
-141.279 113.508 -15.0643 0.5 
86.4725 270.582 -16.5776 0.5 
80.3755 266.88 -27.6765 0.5 
15.3803 282.267 -49.059 0.5 
26.5092 303.185 -31.7312 0.5 
-162.554 386.858 9.90983 0.5 
-159.803 386.978 9.64577 0.5 
-157.258 386.982 9.7448 0.5 
-154.648 387.068 9.63062 0.5 
-151.344 388.292 8.0525 0.5 
-147.243 390.427 5.26095 0.5 
-143.313 392.828 2.35881 0.5 
-139.546 395.06 -0.36242 0.5 
33.72 301.798 -30.2393 0.5 
-130.979 401.095 -7.69023 0.5 
-126.833 403.832 -11.0123 0.5 
-122.897 406.208 -13.9031 0.5 
-118.978 408.57 -16.751 0.5 
36.057 301.18 -29.594 0.5 
-111.179 413.347 -22.1791 0.5 
-107.186 415.808 -24.9379 0.5 
-103.681 417.6 -27.0372 0.5 
17.9818 312.055 -21.1984 0.488337 
2.01983 311.977 -20.9559 0.350413 
84.5763 269.652 -20.625 0.5 
82.5675 270.84 -21.904 0.5 
-21.6248 312.457 -21.2059 0.5 
-51.701 280.54 -47.1085 0.5 
-81.7612 278.557 -44.9303 0.5 
-86.8823 278.888 -45.2378 0.5 
-94.661 279.158 -45.4753 0.5 
-97.321 279.12 -45.4227 0.5 
-132.135 278.25 -44.4432 0.5 
90.027 252.168 -26.9535 0.5 
23.2404 309.467 -23.4453 0.5 
-5.7819 309.798 -23.508 0.5 
-74.3258 274.957 -46.073 0.5 
-70.8142 296.932 -29.1375 0.346268 
-41.4412 299.78 -27.4452 0.5 
82.5358 265.83 -26.5523 0.5 
-33.4033 455.992 -71.0423 0.5 
-30.4937 456.618 -71.6888 0.435614 
-28.2185 456.102 -71.2445 0.5 
-67.129 245.468 -60.1825 0.48008 
-69.645 85.794 -74.1522 0.216147 
-64.2757 245.881 -60.5872 0.5 
4.54355 266.543 -52.3177 0.5 
-96.3577 97.4825 -71.5597 0.44199 
-61.5247 246.108 -60.8175 0.5 
-52.087 239.046 -73.5023 0.5 
-58.9722 245.959 -60.701 0.5 
131.95 170.913 3.75465 0.483382 
129.395 171.054 3.58767 0.377941 
-5.86678 241.811 -76.1105 0.5 
-3.3088 241.671 -75.9382 0.5 
-24.8253 313.905 -17.6757 0.5 
-47.641 230.015 -89.277 0.469335 
143.134 164.489 5.50213 0.472715 
-133.617 313.523 -16.1038 0.5 
58.3792 300.508 -13.8793 0.5 
-99.9282 281.717 -43.1185 0.5 
53.269 276.03 -37.4618 0.479676 
-153.662 109.737 -11.2058 0.5 
-22.6119 255.012 -60.024 0.5 
-56.4115 245.811 -60.5503 0.5 
-161.903 385.663 6.12753 0.5 
-159.364 385.395 6.30487 0.5 
-156.71 385.413 6.22938 0.5 
-154.069 385.478 6.12163 0.5 
-151.145 386.015 5.39755 0.5 
-147.411 387.7 3.263 0.5 
-143.496 389.855 0.64433 0.5 
-139.672 392.077 -2.03239 0.5 
-135.449 394.807 -5.27355 0.5 
-131.223 397.517 -8.51322 0.5 
-127.562 399.788 -11.3486 0.5 
-123.444 402.318 -14.367 0.5 
-119.388 404.872 -17.4331 0.5 
-115.74 406.862 -19.7469 0.5 
-3.57245 281.565 -48.3983 0.5 
-6.12063 281.585 -48.3438 0.5 
-8.67768 281.82 -48.6 0.5 
-11.1388 282.16 -48.9572 0.5 
-16.2586 282.478 -49.289 0.5 
-0.736257 311.79 -20.7142 0.351948 
4.77093 312.17 -21.1973 0.351189 
-3.27488 311.94 -20.8563 0.5 
-54.4157 280.225 -46.7318 0.5 
-73.2305 294.857 -31.9768 0.5 
43.6995 229.993 -63.5168 0.361482 
47.0077 266.595 -42.4168 0.5 
-139.22 307.842 -20.0332 0.5 
-133.515 308.625 -20.9661 0.5 
33.0935 308.012 -21.9163 0.397779 
30.7078 308.488 -22.4655 0.398869 
-140.46 93.6547 -26.4345 0.5 
2.71095 298.355 -36.3483 0.5 
-53.7735 245.88 -60.6553 0.5 
-74.709 112.15 -70.5682 0.463798 
-51.0173 246.1 -60.8628 0.5 
-33.9373 452.075 -71.0882 0.402204 
-31.2855 452.848 -72.4053 0.5 
-28.35 453.435 -73.172 0.5 
-26.3837 452.397 -72.1338 0.5 
-74.619 264.315 -54.9565 0.5 
-48.2495 246.275 -61 0.5 
-45.595 246.306 -61.0155 0.5 
71.8613 273.353 -29.6488 0.5 
-137.895 90.4098 -28.0982 0.5 
-42.9313 246.308 -61.012 0.5 
-40.2808 246.339 -61.0398 0.5 
41.3807 230.604 -64.1557 0.404872 
16.3511 238.694 -72.7627 0.5 
-0.837468 241.323 -75.5605 0.5 
-62.8305 276.798 -48.0868 0.5 
-37.4188 246.727 -61.4303 0.5 
-39.614 306.122 -19.0207 0.456233 
-34.6628 246.976 -61.687 0.5 
22.9969 241.159 -65.3255 0.5 
-138.344 114.384 -15.9888 0.5 
17.1791 250.115 -54.8595 0.5 
73.7897 269.42 -30.434 0.402874 
-49.5037 254.225 -59.5645 0.5 
-31.825 247.435 -62.1733 0.5 
-161.402 384.152 2.76143 0.5 
-158.99 383.688 3.1407 0.5 
-156.549 383.32 3.486 0.5 
-153.801 383.39 3.26842 0.5 
-150.832 383.837 2.64108 0.5 
-147.529 384.895 1.35605 0.5 
-143.897 386.538 -0.59692 0.5 
-140.249 388.405 -2.83798 0.5 
49.4865 218.043 -66.059 0.5 
38.9225 276.473 -43.0233 0.4619 
36.7668 277.53 -44.0527 0.5 
32.278 279.068 -45.744 0.484346 
22.6966 281.057 -47.8418 0.5 
7.286 314.432 -18.6407 0.5 
-0.140192 282.38 -49.0863 0.5 
10.4947 307.885 -26.6497 0.5 
-74.1125 303.145 -20.5902 0.5 
-13.329 308.122 -26.656 0.5 
-50.6398 91.264 -70.0295 0.5 
-21.7851 282.117 -48.8722 0.5 
-30.609 280.233 -46.8122 0.5 
-45.9898 281.23 -47.9033 0.476022 
-48.8357 280.917 -47.5243 0.5 
68.8023 222.07 -55.066 0.5 
-4.80768 268.56 -54.6925 0.5 
28.8368 295.138 -38.0438 0.5 
-42.1045 268.385 -54.2508 0.5 
-49.5835 269.242 -55.1302 0.462592 
-52.24 269.215 -55.1095 0.5 
-65.9188 268.37 -54.237 0.5 
-68.7635 267.94 -53.7708 0.5 
-127.472 302.555 -29.7843 0.5 
7.6421 312.467 -21.5878 0.5 
118.571 173.161 6.41345 0.5 
-28.943 247.754 -62.4673 0.5 
-26.1975 247.968 -62.7 0.5 
-31.7677 448.965 -72.307 0.5 
-28.681 450.235 -73.9922 0.28649 
-23.4621 248.224 -62.9782 0.5 
-20.8122 248.355 -63.1105 0.5 
-65.401 287.033 -38.829 0.5 
-18.0508 248.665 -63.364 0.377053 
-86.6103 294.508 -31.5337 0.5 
-153.397 85.8138 -23.7386 0.5 
-156.532 84.7998 -22.7414 0.5 
-15.3907 248.732 -63.3875 0.345343 
-43.0662 284.238 -46.049 0.5 
25.7828 233.915 -72.6505 0.458423 
-155.382 93.0263 -20.7889 0.442831 
135.78 180.718 18.7614 0.5 
88.4232 256.693 -26.787 0.5 
-89.1722 294.665 -31.6947 0.5 
-37.6725 294.538 -36.982 0.5 
-12.1022 248.647 -63.149 0.343724 
-28.5522 269.147 -55.11 0.5 
-104.449 121.327 -28.2868 0.5 
-10.0967 248.578 -63.3475 0.333427 
-60.0273 284.633 -41.3307 0.5 
-7.53272 248.524 -63.2158 0.295616 
-40.6 240.959 -75.4303 0.5 
119.955 180.949 18.4927 0.5 
-4.38452 248.41 -62.861 0.343541 
-160.834 382.645 -0.769012 0.5 
-158.626 381.8 0.0561307 0.5 
-156.197 381.365 0.45412 0.5 
-153.75 380.957 0.853418 0.5 
-150.976 381.057 0.68246 0.5 
-147.866 381.742 -0.129116 0.5 
-144.838 382.552 -1.16832 0.5 
-47.7388 234.938 -84.2725 0.5 
43.439 274.967 -41.3857 0.5 
41.1558 275.7 -42.146 0.5 
-8.085 240.163 -79.3698 0.5 
61.6818 221.133 -59.1283 0.5 
-144.137 311.095 -18.5674 0.5 
88.8917 219.578 -42.4613 0.5 
-18.3675 238.219 -82.4318 0.5 
-80.9967 290.12 -36.9945 0.5 
61.41 258.698 -43.9538 0.5 
59.0933 259.358 -44.6362 0.5 
49.4417 261.19 -46.5913 0.5 
-48.2725 90.706 -69.447 0.5 
122.557 180.653 18.7144 0.5 
-123.153 287.865 -39.4177 0.5 
78.2155 267.735 -28.6008 0.436161 
-36.863 308.638 -16.78 0.5 
-66.5872 304.848 -17.4147 0.5 
78.6185 281.098 -17.9492 0.5 
-81.128 88.3265 -77.2868 0.5 
-169.325 452.92 -144.958 0.437269 
18.3678 307.9 -26.667 0.5 
118.155 156.826 -7.19708 0.5 
-133.471 306.235 -23.4562 0.5 
-83.998 297 -29.1405 0.5 
-116.496 300.788 -33.0822 0.5 
33 287.945 -40.3 0.469266 
-30.0535 445.315 -73.0253 0.5 
-27.191 446.33 -74.4577 0.378888 
-122.092 242.703 -55.4745 0.5 
-193.572 178.064 59.6038 0.5 
21.021 292.902 -40.597 0.5 
34.9233 281.598 -43.415 0.5 
-16.5919 274.267 -55.4938 0.5 
-83.7483 289.923 -36.763 0.5 
-78.0107 105.51 -74.3672 0.5 
-75.4265 105.387 -74.2482 0.5 
-72.8565 105.223 -74.0023 0.5 
5.53795 286.155 -48.2815 0.5 
51.0412 276.823 -38.3568 0.5 
30.1528 282.6 -44.541 0.5 
27.7055 282.988 -44.9712 0.5 
-87.1203 275.827 -47 0.5 
-92.2442 276.117 -47.267 0.5 
-94.8947 276.1 -47.2422 0.448673 
24.5236 276.955 -48.414 0.5 
29.2607 275.853 -47.249 0.5 
38.4995 273.235 -44.4162 0.5 
57.1667 268.265 -39.171 0.416262 
-31.5595 238.232 -82.5282 0.5 
-96.6895 115.718 -53.6457 0.457493 
-2.4117 248.245 -62.8767 0.333112 
69.1943 243.131 -47.3628 0.5 
-43.8592 297.777 -30.306 0.305495 
-127.867 311.84 -19.4395 0.5 
-57.1982 277.328 -48.682 0.5 
-5.87485 314.547 -18.6364 0.5 
33.9977 251.955 -56.6828 0.5 
-59.9883 287.28 -39.1163 0.5 
-87.0062 100.485 -74.4808 0.47075 
-57.0795 285.238 -42.005 0.5 
-54.272 285.753 -42.5575 0.5 
5.0706 270.073 -51.0255 0.5 
-65.142 93.977 -72.9717 0.5 
33.4142 291.26 -38.8652 0.5 
0.0672415 247.895 -62.508 0.5 
-160.152 381.34 -4.4968 0.5 
-158.233 379.99 -3.05563 0.5 
-155.863 379.008 -1.9699 0.314652 
-153.884 378.22 -1.19386 0.449591 
-151.333 377.965 -0.93798 0.5 
-148.565 378.145 -1.18962 0.5 
-145.303 378.955 -2.01845 0.5 
113.122 170.479 4.19147 0.412236 
57.4315 271.265 -37.3995 0.5 
91.9315 250.653 -25.3403 0.5 
-40.0562 239.541 -78.922 0.5 
85.3165 248.277 -32.8647 0.5 
77.0545 252.855 -37.787 0.5 
74.9857 254.135 -39.0755 0.5 
72.8485 255.105 -40.1445 0.5 
68.412 256.81 -41.9598 0.5 
66.1198 257.54 -42.7175 0.5 
17.6987 253.632 -53.1925 0.5 
44.661 254.708 -54.6688 0.5 
47.0637 261.715 -47.153 0.5 
36.9688 262.688 -48.25 0.5 
27.6842 312.732 -17.017 0.482826 
-27.7677 219.826 -93.6867 0.5 
7.01468 266.2 -51.9832 0.5 
-9.5736 270.01 -55.9135 0.5 
-12.0317 270.37 -56.281 0.5 
116.183 186.826 17.4995 0.5 
33.07 247.687 -57.263 0.5 
-27.4635 222.984 -92.0638 0.47845 
117.8 182.023 17.4459 0.5 
-3.13622 304.725 -28.0955 0.5 
-0.286885 300.203 -33.272 0.5 
8.37963 296.527 -39.4548 0.5 
30.5087 288.263 -40.6143 0.5 
-38.245 283.345 -45.096 0.5 
-15.5817 253.325 -58.4392 0.5 
-94.6295 246.441 -55.473 0.5 
74.3382 278.052 -24.6855 0.472221 
2.48461 247.296 -61.9787 0.5 
4.94133 246.894 -61.5592 0.5 
-11.4858 273.943 -55.1652 0.5 
50.371 224.912 -63.15 0.5 
7.42048 246.624 -61.2207 0.5 
-99.1562 99.7558 -68.6418 0.5 
5.67295 288.99 -46.344 0.5 
-92.5543 102.737 -71.6372 0.5 
-89.38 103.899 -72.8035 0.5 
-86.2343 104.757 -73.5618 0.5 
-83.486 105.103 -73.9427 0.5 
-80.6963 105.408 -74.2465 0.5 
9.81065 246.21 -60.722 0.5 
11.7883 262.675 -53.2 0.5 
-92.7095 121.507 -33.195 0.5 
-95.202 120.801 -32.9435 0.5 
-98.111 120.406 -32.4857 0.5 
-101.236 119.584 -31.5362 0.40387 
-104.445 118.485 -30.5125 0.5 
-91.7638 282.182 -43.653 0.5 
-75.6813 285.095 -41.7722 0.5 
-78.3333 285.142 -41.8322 0.5 
18.3418 287.867 -45.168 0.5 
30.18 285.125 -42.2467 0.375126 
-54.2958 283.085 -44.76 0.5 
0.336228 291.258 -43.7453 0.5 
-65.7602 271.125 -52.1227 0.5 
73.407 264.193 -34.9415 0.348511 
136.239 163.891 1.00943 0.478469 
-27.5742 286.075 -43.0455 0.5 
-13.9467 274.263 -55.469 0.5 
77.4053 238.393 -42.3232 0.5 
12.3593 246.044 -60.532 0.328136 
-78.6895 297.008 -29.1943 0.5 
-147.887 293.69 -30.2307 0.447865 
74.0283 272.485 -28.698 0.5 
-57.2853 279.86 -46.3398 0.5 
27.5677 280.253 -46.9097 0.5 
-19.2598 284.302 -46.1952 0.290989 
14.8237 245.712 -60.1558 0.326346 
17.3876 245.544 -59.984 0.322373 
25.4515 286.253 -43.4338 0.393209 
54.4548 265.628 -41.3423 0.5 
-139.057 300.54 -27.481 0.5 
-30.2307 286.05 -43.0033 0.5 
19.8409 245.082 -59.5308 0.5 
-157.901 378.04 -5.97222 0.5 
-156.103 376.49 -4.29553 0.5 
-154.05 375.39 -3.11663 0.5 
-151.77 374.688 -2.35217 0.5 
-149.116 374.663 -2.35768 0.5 
-146.236 375.015 -2.78225 0.5 
-142.887 375.567 -3.65882 0.430683 
55.0855 271.842 -38.0432 0.5 
82.7225 223.033 -46.1748 0.5 
-34.1607 230.661 -89.8283 0.5 
52.9915 307.73 -6.7325 0.455298 
-22.1583 258.48 -58.8035 0.5 
-17.2268 257.772 -58.0965 0.5 
-7.0629 257.393 -57.3053 0.482046 
118.451 162.571 -2.90658 0.486925 
10.2361 254.57 -54.605 0.5 
20.2677 253.615 -52.979 0.5 
47.0322 254.165 -54.1035 0.460894 
51.735 253.02 -52.8565 0.5 
56.3128 251.66 -51.3717 0.5 
65.0437 247.849 -47.4065 0.5 
79.588 239.895 -38.9383 0.5 
89.9012 234.06 -32.691 0.5 
99.9555 227.748 -25.99 0.5 
-40.8493 280.935 -47.546 0.5 
117.407 183.873 20.5761 0.5 
30.4142 247.634 -57.1857 0.5 
-24.8523 222.942 -91.9105 0.483027 
-77.6058 116.921 -65.1045 0.5 
75.4935 221.885 -50.0243 0.5 
-3.04218 300.015 -33.0443 0.5 
-157.207 162.276 76.4977 0.5 
-154.752 169.723 88.0892 0.389612 
-37.021 310.86 -14.1283 0.5 
22.3997 244.913 -59.3428 0.5 
-63.0305 271.408 -52.4275 0.5 
-24.9116 286.08 -43.0535 0.5 
34.7228 235.643 -64.4662 0.5 
-2.58747 293.315 -40.9243 0.5 
24.8593 244.603 -58.9972 0.5 
55.426 274.997 -36.4325 0.5 
57.661 274.207 -35.5527 0.5 
59.9528 273.51 -34.8153 0.479726 
62.373 273.085 -34.3438 0.465034 
-46.5068 277.77 -49.2265 0.452935 
-49.1608 277.715 -49.1153 0.5 
59.225 262.125 -42.6 0.430819 
54.301 262.837 -43.358 0.5 
56.7133 287.535 -29.8987 0.446005 
58.9328 286.737 -29.031 0.440302 
-99.4403 287.68 -39.355 0.467926 
80.6233 274.835 -21.2087 0.5 
82.6028 273.525 -19.7836 0.366658 
-96.694 287.9 -39.6205 0.5 
-39.8262 237.547 -81.8577 0.5 
142.495 160.673 4.43155 0.5 
30.1867 239.664 -63.7405 0.5 
-2.9383 249.669 -59.4433 0.5 
52.2385 291.61 -29.2878 0.450589 
49.9567 292.33 -30.0667 0.5 
80.4927 282.035 -13.9037 0.455799 
78.4465 283.188 -15.1557 0.5 
-5.58375 290.13 -42.49 0.5 
-8.54233 289.568 -41.8617 0.5 
23.3482 236.815 -70.758 0.5 
-60.7275 265.508 -56.1533 0.44212 
-134.914 91.2287 -28.9718 0.5 
-93.5537 116.54 -54.511 0.322127 
27.418 244.423 -58.7925 0.5 
-9.04663 273.548 -54.7052 0.484396 
-2.56585 268.177 -54.0252 0.5 
75.5807 242.388 -41.618 0.5 
69.0898 157.288 -53.7808 0.5 
29.89 244.089 -58.4468 0.5 
-28.733 90.695 -64.078 0.5 
51.9803 265.983 -41.7088 0.5 
64.452 266.975 -37.793 0.5 
62.761 278.818 -30.5043 0.458974 
7.87315 305.64 -29.1558 0.5 
27.7555 285.565 -42.7148 0.39193 
44.7123 267.293 -43.122 0.467921 
-78.3408 290.125 -37.0293 0.5 
-24.1788 242.177 -76.5895 0.413923 
32.445 243.913 -58.249 0.5 
-157.431 376.33 -9.2261 0.5 
-156.018 374.083 -6.71247 0.44754 
-154.032 372.978 -5.54095 0.5 
-151.845 372.068 -4.50653 0.5 
-149.552 371.367 -3.75537 0.5 
-146.895 371.345 -3.7592 0.5 
-144.027 371.682 -4.02555 0.5 
52.7987 272.562 -38.8083 0.5 
-3.0645 239.63 -78.7927 0.5 
17.1402 247.516 -57.1017 0.5 
-32.4847 258.908 -59.2122 0.5 
-19.6917 258.138 -58.4825 0.5 
-14.4867 257.96 -58.1903 0.5 
-1.89976 256.712 -56.7868 0.5 
7.88018 255.14 -55.2522 0.5 
15.2157 253.817 -53.6792 0.5 
-22.2599 286.095 -43.0762 0.5 
49.449 253.718 -53.5908 0.41684 
53.995 252.275 -52.0595 0.5 
10.2915 312.513 -21.6464 0.5 
15.4179 312.24 -21.3742 0.5 
25.6632 236.192 -70.0612 0.474014 
-157.211 291.427 -27.1947 0.5 
-15.9017 313.237 -22.1504 0.5 
-10.7545 312.897 -21.8282 0.5 
-55.777 307.487 -15.464 0.454833 
-134.59 281.48 -42.3762 0.5 
34.9235 243.612 -57.9705 0.5 
-91.8587 109.254 -67.7995 0.5 
-129.048 281.645 -42.9242 0.5 
-108.535 277.878 -44.0435 0.476512 
-8.3905 302.397 -30.5505 0.5 
-88.895 107.519 -71.182 0.5 
37.5703 243.598 -57.9155 0.5 
40.2743 243.513 -57.7183 0.5 
-39.846 310.42 -13.6308 0.5 
-93.928 310.835 -18.7015 0.5 
-142.632 283.327 -39.5378 0.448537 
-139.8 283.768 -40.0448 0.5 
25.4368 240.73 -64.9027 0.5 
-36.9793 237.972 -82.2932 0.5 
0.941275 244.633 -69.0378 0.5 
43.0275 221.057 -69.1965 0.5 
-67.768 292.675 -34.748 0.5 
-62.456 292.655 -34.7712 0.5 
52.1903 289.033 -31.5093 0.5 
54.4615 288.3 -30.7185 0.5 
-71.9272 109.125 -72.5127 0.5 
13.7325 294.098 -41.877 0.453672 
14.7106 250.432 -55.1833 0.5 
-2.79832 252.427 -57.384 0.5 
-17.8591 254.018 -59.112 0.5 
-33.1975 254.915 -59.911 0.5 
10.8965 298.747 -36.8265 0.472321 
61.019 293.03 -20.8007 0.471194 
20.6868 309.67 -23.6348 0.5 
-85.8433 110.974 -69.484 0.5 
72.0965 278.84 -25.5275 0.477368 
-63.155 268.543 -54.4033 0.5 
-73.8988 278.383 -44.7018 0.5 
-16.6426 286.652 -43.7147 0.5 
76.3363 284.27 -16.3456 0.5 
74.1557 285.188 -17.3444 0.5 
30.978 291.678 -39.3195 0.5 
-138.574 108.25 -20.1953 0.5 
-71.4047 270.182 -51.1795 0.474239 
49.5103 258.848 -49.0877 0.469794 
42.2 260.073 -50.4015 0.5 
-150.26 86.8328 -24.7361 0.5 
-41.453 88.9688 -66.7777 0.5 
-16.5966 289.22 -41.437 0.5 
-27.084 292.01 -39.3708 0.5 
-146.07 95.8378 -23.5431 0.5 
-158.437 92.2125 -20.1198 0.5 
-84.4303 303.712 -21.0986 0.5 
63.1245 161.349 -57.6115 0.5 
38.3875 298.082 -31.2493 0.5 
45.3565 293.69 -31.5208 0.5 
31.216 294.625 -37.4987 0.5 
76.4902 277.098 -23.6546 0.5 
-59.5417 232.446 -81.7655 0.5 
-29.3892 86.2835 -64.59 0.5 
-118.053 287.715 -39.459 0.5 
99.0695 259.005 -4.01918 0.5 
80.7115 277.457 -19.0129 0.5 
-15.8609 240.433 -79.7045 0.5 
4.41427 238.728 -77.806 0.5 
-45.2363 310.105 -13.2716 0.5 
-155.642 372.22 -9.78095 0.5 
-154.058 370.438 -7.795 0.5 
-152.021 369.41 -6.63447 0.383966 
-149.847 368.485 -5.54367 0.379913 
-147.372 367.995 -5.01743 0.5 
-144.957 367.827 -4.65825 0.5 
50.5443 273.318 -39.639 0.5 
84.7495 222.012 -44.9537 0.5 
130.964 156.032 -6.284 0.459455 
-29.832 258.938 -59.246 0.5 
-54.2745 288.038 -39.9835 0.5 
-152.978 434.033 -153.766 0.5 
-4.52402 256.735 -56.9688 0.478256 
-142.296 289.268 -35.7505 0.5 
12.6954 253.928 -53.9715 0.5 
22.9461 253.848 -53.5265 0.463604 
34.8787 233.493 -67.207 0.5 
81.5517 236.122 -39.892 0.395873 
-32.8175 301.297 -29.1077 0.305987 
116.284 184.215 15.171 0.470379 
-57.2977 299.99 -27.4922 0.5 
-47.9775 309.807 -12.978 0.5 
-11.3941 289.22 -41.4673 0.5 
-57.253 287.545 -39.4082 0.5 
27.966 288.455 -40.8203 0.5 
-150.769 102.376 -19.6268 0.435067 
-38.1885 258.077 -58.3353 0.5 
9.31385 262.99 -53.4762 0.5 
-50.8345 309.455 -12.523 0.5 
-70.5707 294.865 -32.0125 0.5 
53.3067 305.872 -9.64235 0.431976 
20.6109 241.62 -65.8727 0.32764 
2.60315 270.432 -51.4132 0.5 
-47.7393 242.127 -66.7405 0.39637 
121.291 168.122 1.53228 0.5 
-13.9047 292.003 -39.424 0.5 
-145.032 296.81 -28.4905 0.5 
-130.482 299.372 -31.415 0.5 
84.1908 256.348 -31.4367 0.5 
82.0387 257.435 -32.566 0.5 
-108.613 300.632 -32.9668 0.5 
76.0805 225.656 -48.9252 0.5 
86.2055 255.042 -30.051 0.5 
-141.971 307.682 -19.8521 0.5 
-46.4892 295.452 -32.7917 0.5 
25.923 292.13 -39.762 0.5 
-102.443 284.487 -41.0043 0.5 
-126.059 284.865 -41.296 0.446411 
-128.705 284.81 -41.2193 0.5 
-134.203 284.398 -40.7493 0.5 
-131.457 284.62 -41.002 0.5 
-82.2277 305.327 -17.8065 0.5 
25.7002 309.1 -23.0601 0.393784 
-130.728 311.478 -18.9935 0.5 
-32.4893 220.973 -94.9457 0.5 
-3.2864 307.09 -25.5872 0.45248 
-14.4275 245.533 -70.1042 0.5 
98.7172 263.275 1.50627 0.432139 
-16.9909 245.69 -70.2767 0.381689 
59.0055 289.348 -26.852 0.5 
52.4282 241.615 -55.7607 0.477326 
54.7225 240.888 -55.036 0.5 
4.07587 240.569 -74.7595 0.5 
136.794 170.044 4.68062 0.5 
26.3848 260.167 -50.6287 0.5 
70.815 220.745 -53.7043 0.5 
56.906 239.948 -54.059 0.5 
59.1927 239.225 -53.318 0.47275 
51.071 306.655 -10.5843 0.5 
-154.534 113.349 -4.31182 0.5 
61.5025 238.514 -52.6135 0.472355 
69.1905 295.788 -8.77142 0.5 
23.2468 289.605 -42.05 0.481115 
63.8897 238.079 -52.031 0.5 
-81.5933 298.992 -26.2355 0.5 
-41.949 303.957 -21.748 0.5 
102.219 232.017 -20.4429 0.404089 
11.1297 291.78 -44.3678 0.5 
69.6475 286.708 -18.9753 0.483626 
67.385 287.46 -19.7792 0.471221 
-141.603 107.494 -19.4385 0.5 
-144.673 106.811 -18.7845 0.42708 
-147.574 106.23 -18.1965 0.5 
39.6435 260.228 -50.5773 0.5 
34.3275 260.18 -50.517 0.5 
-8.73308 284.193 -46.121 0.5 
36.9313 234.792 -63.5845 0.5 
-92.442 118.827 -46.3857 0.5 
66.1217 237.187 -51.1457 0.5 
-74.7933 95.7905 -74.962 0.5 
-158.706 88.2048 -20.6166 0.5 
-116.636 297.932 -35.0928 0.5 
-119.406 297.788 -34.9265 0.5 
68.3282 236.385 -50.22 0.5 
28.9475 300.34 -33.6543 0.5 
43.0082 296.753 -29.829 0.481569 
70.5478 235.478 -49.2845 0.5 
69.3913 293.685 -11.446 0.5 
-100.1 91.9435 -71.0382 0.5 
67.3325 274.902 -31.29 0.363264 
-8.6863 286.812 -43.9173 0.5 
97.0452 260.167 -5.25935 0.5 
-14.0522 289.182 -41.4085 0.5 
-151.266 98.6273 -21.1258 0.5 
-1.43964 245.074 -69.5863 0.5 
-2.89733 297.775 -35.668 0.289437 
61.0337 285.642 -27.8565 0.5 
72.7572 234.685 -48.3993 0.5 
-154.152 367.838 -9.9943 0.5 
-152.225 366.637 -8.60565 0.5 
-150.215 365.225 -7.01133 0.5 
-148.119 364.135 -5.78315 0.5 
-145.784 363.555 -5.09018 0.480177 
48.2277 274.013 -40.32 0.454374 
86.831 220.566 -43.6052 0.5 
14.6678 247.829 -57.4373 0.5 
87.2588 246.939 -31.4027 0.5 
-47.4665 265.7 -56.39 0.5 
74.9342 233.747 -47.4097 0.5 
77.123 232.814 -46.4263 0.5 
-83.006 113.989 -67.3433 0.322549 
-33.5083 277.23 -48.6208 0.5 
64.0202 261.122 -41.5618 0.387426 
15.3588 314.525 -18.8984 0.5 
-41.1915 277.755 -49.167 0.5 
81.6835 254.12 -34.0778 0.5 
-94.4048 120.155 -37.3377 0.38847 
-97.3595 119.36 -36.6138 0.5 
79.2587 231.84 -45.3698 0.5 
-136.092 301.087 -28.115 0.5 
-138.884 105.064 -22.2342 0.5 
-141.892 104.25 -21.4232 0.5 
-153.776 101.576 -18.8081 0.5 
81.3672 230.732 -44.2105 0.5 
-144.937 294.277 -30.8902 0.5 
-13.1233 252.94 -58.0175 0.5 
-88.847 110.284 -68.8155 0.5 
-82.9617 111.485 -69.9655 0.5 
-72.152 112.089 -70.4835 0.5 
-27.7172 278.272 -49.7612 0.5 
83.4133 229.572 -42.9678 0.5 
59.3692 151.258 -62.8582 0.5 
57.2703 152.227 -63.9463 0.5 
9.87262 251.327 -56.1162 0.5 
-103.366 117.662 -34.951 0.5 
28.9613 302.818 -31.3505 0.484577 
-95.2257 104.892 -68.5385 0.5 
-84.6567 275.49 -46.6587 0.5 
-136.244 303.337 -25.422 0.469387 
22.5897 250.333 -55.0687 0.5 
-71.4727 233.813 -63.0603 0.5 
-68.3805 234.88 -64.3258 0.272231 
-65.2663 236.166 -65.5915 0.438909 
-62.0417 237.425 -66.8753 0.43149 
34.8792 311.262 -15.4439 0.484903 
91.5045 247.282 -26.7688 0.483136 
-58.8978 238.436 -67.9157 0.5 
-80.3177 268.562 -49.3758 0.5 
-10.762 307.883 -26.415 0.5 
-96.9325 284.95 -41.5317 0.5 
-99.6915 284.728 -41.2733 0.5 
-142.388 286.35 -37.6867 0.475939 
-145.359 285.797 -37.0863 0.5 
-151.36 284.43 -35.5757 0.5 
-96.0293 309.4 -22.1881 0.5 
-93.768 308.635 -21.3747 0.5 
26.551 298.31 -36.4525 0.432873 
24.052 298.582 -36.7393 0.5 
0.89866 226.776 -85.5165 0.5 
133.326 180.971 18.4158 0.5 
-8.25165 310.082 -23.8162 0.447698 
-8.5728 228.976 -87.8365 0.5 
85.4698 228.421 -41.742 0.5 
87.6555 227.482 -40.748 0.5 
9.10857 240.085 -74.2103 0.5 
-31.3995 235.959 -85.2115 0.337102 
-28.7455 235.999 -85.2357 0.5 
-153.559 430.547 -154.603 0.5 
51.359 304.763 -13.4686 0.5 
46.94 306.485 -15.3183 0.5 
49.135 305.59 -14.4256 0.5 
53.5947 303.962 -12.6372 0.5 
44.6538 307.185 -16.0907 0.5 
42.2913 307.747 -16.6922 0.5 
-58.315 305.41 -18.1517 0.5 
-52.6007 306.14 -19.0446 0.5 
-49.8515 306.353 -19.3023 0.5 
-47.304 306.28 -19.2013 0.5 
-13.1859 310.855 -24.622 0.5 
-15.955 310.962 -24.6479 0.457362 
-21.587 310.103 -23.6762 0.5 
-39.3983 303.823 -21.6036 0.5 
-18.6987 229.854 -88.8725 0.5 
89.758 226.359 -39.5672 0.5 
91.641 224.83 -37.9482 0.5 
71.913 285.973 -18.1724 0.5 
82.4538 280.705 -12.4656 0.484178 
84.3638 279.225 -10.8395 0.460934 
-150.49 105.675 -17.6551 0.423171 
-153.516 104.883 -16.8687 0.5 
-33.9902 311.6 -15.0208 0.375058 
89.8065 231.542 -35.0212 0.5 
6.75535 263.175 -53.696 0.5 
-55.7563 239.454 -68.958 0.5 
55.8202 278.297 -34.9457 0.5 
49.1485 250.625 -55.3148 0.5 
93.5145 223.294 -36.3242 0.5 
-44.8143 242.826 -67.4072 0.5 
88.304 215.796 -43.5418 0.5 
84.1253 218.076 -45.9365 0.5 
23.4273 234.487 -73.2493 0.459382 
124.046 168.357 1.29825 0.5 
7.79292 282.812 -49.9862 0.5 
-121.756 303.277 -30.6367 0.5 
26.5695 300.825 -34.1872 0.468475 
-103.266 308.283 -26.005 0.35076 
-78.0117 308.143 -10.7977 0.5 
67.0342 296.735 -9.79553 0.5 
-126.022 96.3132 -29.1108 0.5 
64.6137 275.452 -31.8562 0.361941 
-92.0427 106.325 -69.989 0.5 
78.646 278.592 -20.2456 0.474182 
-52.9165 239.92 -69.3992 0.5 
-198.027 190.033 70.3207 0.5 
-71.237 278.397 -44.723 0.5 
-151.105 287.427 -33.6828 0.5 
109.148 146.865 -12.2033 0.5 
95.411 221.769 -34.713 0.5 
-16.1346 315.182 -19.2455 0.409571 
8.4746 291.805 -44.3792 0.5 
-150.616 361.67 -8.2394 0.5 
-148.688 360.247 -6.70245 0.5 
-146.465 359.6 -5.91812 0.5 
-144.049 359.188 -5.4503 0.477321 
59.388 221.867 -59.8563 0.5 
-36.8457 270.875 -51.897 0.5 
-85.8715 91.9988 -76.3327 0.5 
-39.5015 270.855 -51.8717 0.449107 
-22.295 245.595 -70.2262 0.441066 
-116.837 274.55 -45.502 0.5 
-111.813 274.71 -45.8643 0.459048 
-79.6535 274.905 -45.957 0.458326 
22.9426 284.02 -46.0423 0.5 
-21.7006 279.607 -51.2145 0.5 
109.694 173.8 0.573977 0.5 
87.7128 212.184 -44.7092 0.5 
90.4998 258.13 -23.2822 0.5 
63.995 152.623 -59.1145 0.5 
-96.6518 290.53 -37.3778 0.5 
42.1365 262.435 -47.9215 0.5 
5.87463 294.25 -42.001 0.5 
-80.1903 111.823 -70.2828 0.5 
-63.0233 281.43 -42.9383 0.5 
-24.7189 258.665 -59.0355 0.5 
39.6195 255.088 -55 0.5 
-133.269 301.55 -28.6327 0.471745 
31.5842 275.272 -46.5643 0.5 
-34.4627 240.228 -79.5807 0.5 
-46.3848 239.887 -74.3615 0.5 
75.4167 292.443 -5.11105 0.476529 
-138.629 111.207 -17.9965 0.5 
51.6783 217.115 -65.1032 0.5 
-79.2008 278.422 -44.8228 0.5 
78.377 273.158 -24.409 0.438974 
74.2233 275.32 -26.751 0.5 
23.5378 292.617 -40.2817 0.5 
18.5695 293.315 -41.0368 0.5 
-130.662 293.915 -35.7492 0.5 
-25.1475 273.087 -54.2705 0.5 
128.076 180.99 18.4315 0.5 
115.855 167.934 1.65147 0.5 
-78.7972 87.8097 -76.6478 0.5 
77.8587 221.29 -49.001 0.5 
-86.6555 296.97 -29.092 0.5 
57.9822 277.345 -33.9147 0.400136 
-37.081 267.83 -53.653 0.5 
-77.249 269.247 -50.081 0.5 
42.1075 254.905 -54.895 0.5 
-94.1798 285.158 -41.7598 0.5 
-112.439 288.193 -39.8577 0.5 
-148.297 285.188 -36.3993 0.5 
-26.342 212.633 -96.1157 0.467319 
16.34 231.079 -79.8163 0.5 
9.35402 238.073 -77.081 0.5 
21.0624 235.045 -73.8562 0.5 
-35.6553 300.835 -28.6077 0.311285 
-117.529 177.627 102.49 0.435331 
-116.03 88.645 -46.8133 0.5 
19.7465 249.969 -54.7017 0.5 
-113.852 310.883 -23.6383 0.5 
-111.094 311.048 -23.8635 0.5 
-108.533 310.9 -23.7153 0.5 
-8.3065 307.457 -25.9773 0.5 
-15.7523 235.625 -84.7655 0.5 
30.3568 310.272 -19.4075 0.5 
-164.209 451.37 -147.578 0.392286 
-152.081 428.775 -152.725 0.5 
-36.0147 280.115 -46.698 0.5 
-63.5763 89.4187 -72.7113 0.5 
-49.9785 240.537 -70.0355 0.5 
-47.0298 241.123 -70.661 0.462049 
-44.1732 241.584 -71.0993 0.5 
-41.2297 242.203 -71.7313 0.5 
-38.379 242.624 -72.1717 0.5 
-35.5213 243.05 -72.5895 0.430715 
-46.7933 272.065 -53.1317 0.5 
32.5617 282.142 -44.0025 0.5 
37.135 257.978 -53.1625 0.5 
39.6957 257.883 -53.0745 0.5 
36.4555 251.675 -56.483 0.5 
-16.4585 292.07 -39.4865 0.5 
-18.6124 310.64 -24.3113 0.5 
-24.5398 309.492 -22.9718 0.5 
-55.134 238.238 -72.6708 0.5 
-58.0565 237.569 -72.0245 0.431486 
-29.8545 301.818 -29.7475 0.5 
-61.1692 305.045 -17.6991 0.5 
-56.1917 228.745 -88.0243 0.5 
24.1094 301.205 -34.5765 0.469225 
21.5546 301.395 -34.767 0.445281 
-156.388 104.253 -16.2273 0.5 
-159.633 103.4 -15.3952 0.5 
-89.2023 309.72 -17.5105 0.5 
-88.1415 95.618 -74.9437 0.5 
-39.6455 267.99 -53.813 0.5 
4.87157 251.908 -56.7697 0.462739 
29.0085 88.9622 -53.9525 0.5 
-32.6792 243.478 -73.0257 0.5 
-27.6225 311.087 -19.6293 0.5 
58.1818 247.496 -52.059 0.5 
-89.084 299.9 -27.1653 0.5 
-86.6985 299.413 -26.636 0.5 
-41.9575 243.25 -67.842 0.5 
-76.7227 300.82 -23.0804 0.5 
-73.9713 301.013 -23.3236 0.5 
18.7142 235.629 -74.4755 0.5 
53.276 230.513 -59.002 0.5 
-68.5825 270.663 -51.6303 0.464992 
-18.5859 300.605 -33.6015 0.5 
-95.878 307.193 -24.8638 0.5 
-98.2365 307.753 -25.4693 0.5 
-100.709 308.105 -25.833 0.5 
-171.336 450.087 -146.62 0.5 
-41.583 254.11 -59.214 0.5 
128.607 156.602 -6.89643 0.5 
20.7652 229.364 -77.9975 0.436692 
-11.2909 284.345 -46.2832 0.5 
62.166 224.565 -57.8025 0.468684 
-124.709 85.213 -33.2663 0 
-89.137 114.911 -63.1713 0.5 
36.1995 273.962 -45.1468 0.5 
-6.16568 279.02 -50.6135 0.46818 
-44.3305 271.723 -52.767 0.431911 
63.071 291.895 -19.5628 0.465728 
-60.0778 282.04 -43.6155 0.5 
-151.165 358.277 -9.48013 0.5 
-149.065 357.3 -8.35972 0.5 
-146.748 356.69 -7.6819 0.5 
-144.422 356.015 -6.97408 0.5 
-142.038 355.477 -6.40897 0.465029 
-139.723 354.888 -5.74118 0.5 
45.8433 274.542 -40.845 0.454604 
-154.146 286.635 -32.8018 0.5 
-0.585532 239.311 -78.421 0.300577 
95.8895 255.73 -15.6658 0.489531 
-16.2019 242.271 -76.6425 0.367202 
79.4297 289.985 -2.44117 0.5 
86.7562 263.622 -24.1647 0.5 
62.5023 157.276 -58.9605 0.5 
18.7029 305.992 -29.6803 0.5 
13.496 306.052 -29.7377 0.5 
-10.5821 237.964 -82.118 0.5 
84.6458 264.73 -25.3645 0.5 
16.147 306.047 -29.7655 0.5 
21.356 305.922 -29.6618 0.5 
23.9112 305.753 -29.492 0.5 
26.3733 305.41 -29.1262 0.5 
28.8277 305.048 -28.7453 0.35911 
-92.003 279.172 -45.4885 0.5 
-133.307 303.957 -26.1245 0.5 
38.9268 251.345 -56.1683 0.5 
-159.641 105.979 -12.6712 0.381666 
-156.439 106.845 -13.5618 0.5 
-147.366 109.178 -15.9113 0.5 
-141.481 110.574 -17.3365 0.5 
49.572 301.505 -19.9325 0.5 
51.8358 300.765 -19.132 0.5 
-2.61593 290.693 -43.1137 0.5 
3.06728 291.538 -44.058 0.5 
23.031 286.677 -43.908 0.418091 
20.7188 287.342 -44.6075 0.418103 
-70.7533 284.39 -41.0325 0.5 
114.62 181.023 8.33545 0.435612 
-127.787 294.247 -36.1115 0.5 
-42.5825 237.304 -81.628 0.5 
38.169 292.7 -35.4235 0.436953 
-29.989 220.574 -94.453 0.470285 
42.055 309.747 -13.8578 0.5 
-144.472 109.773 -16.5034 0.5 
-35.0755 292.13 -39.4655 0.5 
-32.412 292.082 -39.4217 0.5 
-161.52 112.636 1.71459 0.31484 
10.8225 286.133 -48.2385 0.5 
-137.086 284.068 -40.405 0.456742 
84.0843 281.21 -7.9665 0.47258 
-23.7896 212.149 -95.5537 0.5 
-108.478 303.41 -30.8805 0.5 
-79.654 96.6943 -75.9035 0.5 
-152.854 89.756 -22.6093 0.5 
69.3675 225.669 -53.8775 0.5 
-71.2947 237.199 -61.5732 0.5 
-122.014 310.402 -23.045 0.5 
-119.151 310.767 -23.4895 0.5 
-116.406 310.983 -23.7569 0.5 
130.637 152.759 -8.02137 0.5 
132.862 152.107 -7.20122 0.5 
134.887 150.961 -5.98505 0.5 
136.719 149.423 -4.34715 0.5 
116.466 178.727 10.6884 0.414766 
118.238 177.961 11.5835 0.453625 
-60.0545 299.788 -27.2445 0.5 
82.6115 278.615 -15.2737 0.467899 
-5.83875 231.73 -85.712 0.5 
-8.30295 232.088 -86.0918 0.5 
-10.7849 232.405 -86.4153 0.5 
-13.3359 232.63 -86.7015 0.5 
-15.8979 232.77 -86.844 0.5 
-18.4556 232.943 -87.0448 0.5 
-21.019 233.059 -87.177 0.46632 
-23.6733 233.091 -87.2338 0.5 
-26.2347 233.255 -87.4197 0.5 
-28.6967 233.505 -87.6965 0.47761 
-31.4625 233.441 -87.6533 0.469527 
-34.0145 233.47 -87.69 0.5 
-36.769 233.271 -87.4973 0.5 
-39.5137 232.974 -87.2212 0.5 
-45.822 289.038 -41.1092 0.5 
-147.425 304.902 -21.9164 0.5 
-33.876 306.842 -19.908 0.5 
35.2097 309.44 -18.482 0.5 
-34.8983 241.809 -76.2858 0.440524 
-37.742 241.402 -75.8658 0.5 
-42.2268 230.308 -89.5205 0.5 
-94.8305 89.8517 -74.345 0.5 
-101.104 87.7822 -72.3465 0.5 
18.99 301.508 -34.8795 0.5 
-116.456 303.418 -30.8145 0.5 
-113.692 303.5 -30.94 0.5 
120.891 177.628 11.9327 0.5 
-29.8255 243.882 -73.4465 0.5 
-27.1695 243.906 -73.4627 0.5 
-57.1395 282.655 -44.279 0.5 
-99.584 96.0977 -70.149 0.5 
-90.1357 99.5945 -73.6922 0.5 
71.3097 264.81 -35.4945 0.5 
-36.8165 230.64 -89.8268 0.5 
-65.7467 283.962 -40.5913 0.5 
37.2647 310.767 -14.8879 0.5 
-13.4613 315.24 -19.3224 0.411371 
2.45154 300.453 -33.5477 0.5 
-98.2742 305.177 -27.7572 0.5 
-79.401 300.785 -23.033 0.384383 
2.07017 309.652 -23.4071 0.5 
7.6826 310.135 -24.0351 0.5 
-82.349 96.6395 -75.982 0.5 
-42.7083 224.215 -93.3045 0.5 
-45.495 224.041 -93.1995 0.451538 
123.633 177.67 11.8148 0.5 
126.397 177.877 11.5994 0.5 
-105.922 308.365 -26.051 0.5 
129.044 177.847 11.6026 0.5 
131.593 177.732 11.7578 0.5 
-158.382 113.622 0.723888 0.5 
-0.53225 307.253 -25.788 0.5 
71.6403 270.485 -31.5625 0.5 
134.129 177.569 11.9427 0.5 
-24.6082 243.795 -73.306 0.5 
-38.2897 298.527 -31.0875 0.5 
65.7298 254.217 -44.2075 0.5 
-21.8628 244.05 -73.5348 0.5 
-87.711 269.538 -50.2765 0.5 
45.096 298.165 -26.3593 0.37457 
136.583 177.249 12.3056 0.5 
-151.327 355.378 -11.3901 0.5 
-149.119 354.675 -10.5721 0.313984 
-146.75 354.112 -9.9874 0.331487 
-144.383 353.542 -9.3563 0.389073 
-142.175 352.69 -8.424 0.380728 
-140.01 351.91 -7.49935 0.5 
-137.96 350.655 -6.15098 0.5 
-217.308 280.045 58.1157 0.5 
-227.47 284.97 51.7803 0.357741 
88.737 262.275 -22.7276 0.424319 
-30.469 283.062 -44.824 0.5 
138.929 176.712 12.8879 0.465192 
-108.682 313.138 -21.0567 0.5 
141.154 175.889 13.8147 0.5 
143.317 175.039 14.6794 0.5 
145.268 173.714 16.0896 0.5 
-120.044 334.268 12.255 0.5 
-70.612 287.15 -38.9287 0.5 
-93.5403 304.05 -26.5667 0.5 
-101.956 290.535 -37.3537 0.5 
-45.328 237.076 -81.4102 0.5 
67.3047 289.81 -17.3101 0.391453 
-27.9177 216.965 -95.7485 0.5 
-25.686 216.079 -94.9595 0.5 
44.4518 264.275 -44.871 0.5 
-147.667 301.785 -23.5868 0.5 
-150.527 301.445 -23.2167 0.5 
-84.2298 299.105 -26.2945 0.5 
44.8328 302.598 -21.1041 0.5 
40.376 304.235 -22.8995 0.5 
65.3545 214.841 -57.548 0.5 
1.86386 238.94 -78.0373 0.5 
47.2242 302.092 -20.5389 0.477389 
42.5505 303.32 -21.8923 0.5 
35.7707 305.585 -24.3264 0.475818 
72.0985 281.36 -23.2401 0.402721 
38.13 305.013 -23.7216 0.389173 
-5.83432 287.185 -44.3302 0.5 
32.7282 234.472 -68.2387 0.5 
-95.8357 304.755 -27.3292 0.5 
-43.7455 277.915 -49.331 0.5 
-51.8162 277.677 -49.0572 0.5 
-54.4572 277.573 -48.9393 0.5 
69.4443 271.39 -32.5238 0.5 
64.8508 272.75 -33.9897 0.463143 
0.076247 285.8 -47.57 0.470485 
2.75895 286.03 -48.171 0.5 
-86.5978 117.261 -60.4028 0.412644 
95.8418 227.608 -30.8625 0.5 
65.022 227.557 -55.878 0.5 
20.2388 281.43 -48.2467 0.5 
-103.579 300.145 -32.482 0.5 
70.5882 193.838 -56.3797 0.5 
68.568 195.48 -57.727 0.5 
-124.747 310.143 -22.7554 0.5 
64.7053 198.545 -60.797 0.5 
123.32 153.978 -9.2961 0.5 
125.867 153.802 -9.08315 0.47895 
128.331 153.464 -8.71845 0.5 
13.5489 228.226 -81.9048 0.5 
32.756 309.812 -18.874 0.5 
8.42542 228.54 -82.266 0.5 
6.07105 229.113 -82.8975 0.5 
3.75412 229.788 -83.5267 0.5 
1.41884 230.39 -84.2135 0.5 
-0.994213 230.82 -84.747 0.5 
-3.37895 231.349 -85.2923 0.5 
112.77 159.237 -4.58827 0.5 
115.535 159.427 -4.776 0.5 
118.297 159.706 -5.05687 0.485743 
121.048 159.94 -5.2826 0.457515 
123.714 160.035 -5.37308 0.46257 
126.362 160.019 -5.33047 0.462336 
128.847 159.689 -4.9743 0.5 
131.2 159.107 -4.34215 0.5 
133.454 158.34 -3.51812 0.5 
135.484 157.164 -2.27318 0.5 
137.447 155.675 -0.75566 0.5 
139.271 154.105 0.915335 0.5 
13.5851 301.387 -34.6895 0.5 
43.108 271.91 -42.9655 0.454391 
-42.28 232.814 -87.0582 0.5 
-44.8267 232.898 -87.1907 0.5 
-111.144 308.517 -26.1733 0.5 
35.529 307.583 -21.5053 0.5 
-1.98163 223.719 -87.437 0.5 
-4.37605 224.302 -88.4217 0.5 
-6.64342 224.988 -88.7263 0.5 
-5.82893 307.195 -25.695 0.5 
-26.2463 90.5158 -63.7402 0.5 
-24.866 84.7553 -62.981 0.5 
-102.661 116.666 -39.1055 0.5 
-74.136 86.7482 -75.3055 0.5 
-93.6725 301.285 -28.66 0.458117 
-91.3232 300.693 -28.0192 0.460858 
-147.934 298.85 -25.5503 0.47548 
-150.917 298.325 -24.9793 0.5 
-130.305 302.105 -29.2765 0.5 
-99.3077 290.46 -37.269 0.5 
47.6353 290.495 -33.0777 0.5 
54.7615 223.174 -61.2665 0.5 
-73.8043 100.51 -74.5765 0.5 
-19.2033 244.113 -73.573 0.5 
11.5261 232.015 -80.8347 0.5 
-22.1882 273.665 -54.8832 0.5 
-54.66 272.212 -53.2892 0.472693 
-32.4705 299.453 -32.1953 0.5 
53.6868 249.135 -53.7365 0.5 
-31.3903 268.707 -54.6157 0.5 
5.32207 300.79 -33.9578 0.5 
-71.2155 301.155 -23.5359 0.5 
4.8029 309.923 -23.7078 0.5 
13.0007 310.16 -24.1207 0.5 
-34.726 224.372 -93.416 0.5 
-32.157 224.209 -93.239 0.5 
-40.0608 224.294 -93.383 0.5 
39.9272 214.967 -72.9945 0.450015 
42.1197 214.198 -72.078 0.5 
97.7837 226.245 -29.4193 0.5 
-108.932 315.108 -18.1302 0.44059 
87.772 250.34 -30.06 0.5 
-142.007 299.965 -26.8162 0.5 
135.256 154.232 -4.30277 0.5 
-97.7082 121.666 -30.5718 0.326378 
-90.3505 120.442 -42.7767 0.5 
-93.4465 119.574 -41.9325 0.379993 
42.9492 299.135 -27.398 0.5 
-86.2547 115.429 -63.663 0.462156 
51.4335 249.904 -54.5747 0.5 
-148.196 288.085 -34.4172 0.444266 
3.68465 259.803 -55.175 0.5 
48.463 228.889 -62.355 0.5 
-63.554 249.886 -59.8205 0.5 
-151.6 352.405 -13.1776 0.5 
-149.239 351.85 -12.5718 0.446755 
-146.86 351.398 -12.0418 0.446606 
-144.551 350.712 -11.3357 0.5 
-142.324 349.825 -10.3868 0.5 
-140.285 348.927 -9.26805 0.5 
-138.363 347.48 -7.67532 0.5 
-136.579 346.113 -6.02885 0.5 
-134.615 344.36 -4.23225 0.5 
-132.574 343.232 -2.96587 0.393394 
-60.804 250.1 -60.0092 0.5 
-175.886 175.979 82.62 0.437836 
-58.1435 250.128 -60.0345 0.5 
-124.869 337.94 2.9222 0.5 
-218.078 283 109.328 0.5 
-121.567 333.9 7.47705 0.5 
-119.824 332.218 9.36257 0.449507 
-118.012 330.543 11.2407 0.5 
-116.236 328.86 13.1182 0.483672 
-8.34253 304.943 -28.2795 0.5 
130.039 149.183 -9.22258 0.5 
127.781 149.787 -10.0106 0.5 
122.969 150.668 -10.9558 0.5 
125.644 150.557 -10.4724 0.5 
-23.2966 215.648 -94.3287 0.5 
-108.433 306.035 -28.6248 0.5 
-6.17792 228.48 -87.381 0.5 
-51.9 86.7995 -69.344 0.5 
55.223 226.583 -59.8763 0.468543 
-39.5675 230.346 -89.5305 0.5 
-89.122 297.307 -29.451 0.5 
-178.102 287.152 128.498 0.5 
-62.6863 238.715 -63.1688 0.5 
-30.949 312.413 -15.9291 0.5 
34.6055 225.406 -73.749 0.5 
31.0537 306.712 -25.525 0.5 
-48.077 236.809 -81.172 0.5 
-70.0488 94.6833 -73.8573 0.5 
-98.4188 302.362 -29.8155 0.5 
67.2788 292.23 -14.8911 0.384209 
-53.623 240.886 -65.4348 0.5 
-125.163 314.432 -17.2094 0.5 
60.4095 213.333 -61.1842 0.5 
47.3162 299.788 -23.1091 0.5 
-62.6033 231.299 -80.661 0.5 
82.0913 219.234 -47.2173 0.5 
-89.551 116.495 -59.692 0.323432 
21.5034 303.78 -32.3407 0.5 
67.2357 226.644 -54.9512 0.5 
76.5778 190.478 -52.4118 0.5 
-50.595 234.519 -83.8543 0.5 
109.571 152.926 -8.26478 0.5 
112.448 153.315 -8.63525 0.5 
115.232 153.635 -8.99333 0.476263 
117.89 153.718 -9.07942 0.472959 
120.672 154.027 -9.4176 0.5 
20.4108 226.135 -79.6403 0.5 
18.2502 226.985 -80.6555 0.5 
15.9943 227.844 -81.4748 0.5 
-31.4982 230.706 -89.8647 0.5 
33.5687 294.038 -36.8727 0.5 
-3.74022 228.081 -86.887 0.5 
-55.297 250.555 -60.4902 0.5 
104.236 163.84 -9.29502 0.5 
105.535 160.825 -6.18605 0.5 
107.543 159.445 -4.74575 0.5 
109.918 159.032 -4.31157 0.454226 
-27.7902 313.337 -17.0032 0.5 
119.302 182.39 22.0887 0.5 
4.13095 233.083 -81.9808 0.5 
-10.5649 252.775 -57.8417 0.5 
91.874 232.843 -31.3875 0.5 
81.585 238.711 -37.6473 0.5 
67.2355 247.038 -46.4945 0.5 
58.5805 250.928 -50.5912 0.5 
109.773 155.921 -6.31925 0.5 
-16.1454 305.39 -28.699 0.5 
-18.7489 302.897 -31.0205 0.5 
54.2578 260.253 -45.6005 0.480579 
63.7633 258.112 -43.3348 0.465883 
6.8696 238.355 -77.398 0.5 
76.5163 279.665 -21.4075 0.5 
20.8615 290.105 -42.5868 0.476009 
-47.5872 232.676 -86.9785 0.480467 
-50.4417 232.252 -86.5677 0.475333 
-25.2525 255.057 -60.1795 0.5 
-91.4678 297.905 -30.0935 0.5 
-81.3467 296.978 -29.145 0.5 
-9.10965 225.333 -89.0655 0.5 
-30.8445 307.617 -20.7974 0.5 
-16.5419 244.055 -73.552 0.5 
-33.3595 280.025 -46.5787 0.5 
-131.23 96.2162 -28.8668 0.5 
129.219 165.622 -0.887835 0.5 
-35.2957 289.005 -41.1222 0.5 
46.7383 235.779 -59.611 0.5 
88.625 264.767 -20.3868 0.5 
40.6663 299.848 -28.1757 0.5 
49.7685 296.925 -25.0098 0.5 
-68.1608 296.918 -29.1528 0.5 
44.4758 282.02 -38.9277 0.467883 
39.1435 231.432 -65.0247 0.426885 
-68.974 99.596 -73.5815 0.5 
-3.79455 278.495 -50.0735 0.5 
40.7715 272.492 -43.6345 0.5 
39.9995 308.415 -17.4524 0.390504 
-14.0815 243.725 -73.1815 0.5 
-11.1037 229.196 -88.1607 0.434695 
-11.3337 243.921 -73.3925 0.5 
-59.2582 227.94 -87.2178 0.5 
-75.6752 91.2887 -75.6417 0.5 
-68.2945 284.022 -40.6395 0.5 
-40.9995 298.158 -30.7558 0.310823 
-157.678 434.657 -154.199 0.5 
-95.5375 117.919 -45.4725 0.5 
8.07753 300.943 -34.179 0.5 
-104.857 287.48 -39.1235 0.5 
10.3359 310.185 -24.1065 0.5 
-37.394 224.345 -93.4145 0.5 
-59.852 221.644 -90.8638 0.467569 
-56.8852 222.255 -91.4385 0.5 
37.9033 215.93 -73.8525 0.5 
-138.674 86.2982 -29.3013 0.5 
-8.77077 243.788 -73.2188 0.5 
56.9267 265.3 -40.9942 0.5 
-77.4043 112.062 -70.4983 0.5 
-104.506 290.75 -37.5993 0.5 
-71.476 275.365 -46.5203 0.5 
-11.0864 279.753 -51.3993 0.466374 
49.3713 263.533 -44.09 0.5 
-21.391 302.818 -30.9172 0.5 
-80.5055 116.453 -64.642 0.5 
-83.3778 115.939 -64.151 0.5 
-5.74025 302.345 -30.5235 0.5 
84.6908 244.53 -33.879 0.5 
-96.3723 298.69 -30.9305 0.5 
-96.5478 295.815 -32.8775 0.465692 
-154.137 350.155 -15.7744 0.5 
-151.914 349.29 -14.8828 0.5 
-149.573 348.72 -14.2374 0.463633 
-147.16 348.302 -13.7301 0.463637 
-144.902 347.552 -12.9153 0.5 
-142.706 346.765 -11.9938 0.5 
-140.706 345.48 -10.5835 0.5 
-138.825 343.707 -8.72617 0.5 
-137.06 342.045 -6.8371 0.5 
-135.011 341.3 -5.87142 0.5 
-132.775 340.412 -4.92957 0.5 
-130.683 339.425 -3.84155 0.5 
-128.685 338.035 -2.31144 0.409123 
-126.704 336.728 -0.85134 0.5 
-124.828 335.37 0.647358 0.5 
-123.075 333.55 2.70053 0.449153 
-121.481 331.767 4.65905 0.454053 
-119.64 330.14 6.48397 0.464954 
-117.71 328.533 8.32585 0.470749 
-115.92 326.975 10.0154 0.5 
-21.53 295.047 -37.65 0.5 
65.4145 202.396 -59.8333 0.5 
67.3245 201.041 -58.3438 0.5 
69.242 199.337 -56.6982 0.5 
120.316 150.688 -11.0665 0.5 
117.637 150.638 -11.0165 0.5 
114.962 150.526 -10.8784 0.5 
112.187 150.26 -10.6069 0.5 
109.41 149.987 -10.3179 0.5 
106.647 149.706 -10.0497 0.456779 
-134.124 95.6237 -28.2582 0.5 
1.77367 314.07 -18.1529 0.5 
-43.546 240.346 -74.8008 0.5 
101.411 149.975 -10.2219 0.5 
104.036 149.729 -10.1848 0.5 
-24.1942 295.065 -37.6505 0.5 
130.809 181.09 18.2483 0.5 
28.593 307.075 -25.9043 0.5 
33.42 306.167 -24.9409 0.5 
-27.5298 306.34 -24.5203 0.5 
-30.6947 305.423 -23.446 0.5 
-24.4877 307.107 -25.4073 0.5 
-18.7691 307.902 -26.35 0.5 
-15.8869 308.235 -26.755 0.5 
-25.0465 245.401 -70.0107 0.5 
-150.975 290.272 -31.6297 0.5 
-99.4597 117.767 -40.2238 0.5 
35.696 290.55 -38.1075 0.5 
-50.7255 226.536 -90.737 0.5 
-32.3645 294.677 -37.158 0.5 
104.373 152.994 -8.39175 0.5 
106.967 152.919 -8.35075 0.5 
32.026 222.954 -76.2275 0.5 
29.6578 223.514 -76.8158 0.466351 
42.473 305.628 -19.4396 0.47014 
24.8893 224.464 -77.937 0.464514 
22.6159 225.208 -78.7065 0.5 
-75.687 290.137 -37.054 0.5 
76.0082 268.553 -29.4727 0.430868 
-28.8363 230.706 -89.8292 0.5 
-157.292 285.673 -31.7255 0.5 
-35.026 294.633 -37.0962 0.5 
-127.029 88.562 -31.4645 0.5 
-67.6602 94.1363 -73.4362 0.5 
57.9127 156.108 -62.8565 0.5 
-57.3003 289.995 -36.9702 0.5 
-54.534 290.128 -37.1452 0.5 
-51.6745 290.492 -37.5785 0.5 
-48.84 290.927 -38.0522 0.295676 
-2.89352 237.414 -81.5392 0.465836 
-0.515925 236.9 -81.0065 0.467072 
1.92383 236.507 -80.5385 0.5 
4.36905 236.104 -80.0947 0.5 
6.84345 235.784 -79.7493 0.5 
9.30555 235.416 -79.3552 0.5 
11.8043 235.137 -79.0763 0.448454 
14.2293 234.695 -78.5717 0.5 
16.5132 233.947 -77.7747 0.461888 
18.727 233.133 -76.9078 0.5 
20.9217 232.213 -75.9435 0.5 
23.2943 231.663 -75.349 0.445673 
25.6838 231.164 -74.8298 0.449023 
10.3245 282.74 -49.919 0.5 
-43.119 286.66 -43.609 0.5 
-65.91 89.923 -73.5125 0.5 
-82.1215 246.575 -57.0182 0.5 
-53.3067 231.86 -86.1652 0.5 
-56.1398 231.385 -85.703 0.5 
-52.6363 250.555 -60.415 0.5 
-45.9893 291.355 -38.5267 0.5 
31.6683 260.13 -50.4475 0.5 
-27.6855 308.548 -21.8812 0.5 
-16.6751 226.041 -89.9215 0.5 
-19.1334 226.423 -90.3677 0.5 
-40.4835 291.84 -39.0902 0.5 
98.6085 146.457 -12.1655 0.5 
-105.669 278.265 -44.4645 0.5 
113.052 164.911 -0.291105 0.5 
88.6368 259.658 -24.9347 0.5 
84.593 262.128 -27.5977 0.406061 
65.1357 290.758 -18.3274 0.398042 
-44.3068 299.465 -27.0245 0.5 
-50.684 241.534 -66.1127 0.390297 
59.9328 154.943 -61.5905 0.5 
-109.436 291.448 -38.337 0.5 
-80.8625 118.361 -61.407 0.5 
-37.81 93.1675 -66.664 0.5 
-23.6686 90.5537 -63.5625 0.5 
-34.822 220.926 -95.0717 0.5 
-37.7155 291.965 -39.2557 0.5 
-29.743 292.008 -39.3525 0.5 
-88.478 118.874 -51.6155 0.30546 
