ply
format ascii 1.0
comment Author: CloudCompare (TELECOM PARISTECH/EDF R&D)
obj_info Generated by CloudCompare!
element vertex 1831
property float x
property float y
property float z
end_header
-52.3786 56.1112 -28.5831 
-1.70976 56.1112 -28.5831 
-1.70976 15.381 -28.5831 
-52.3786 15.381 -28.5831 
-51.6559 56.1112 -29.3058 
-0.987135 56.1112 -29.3058 
-0.987135 15.381 -29.3058 
-51.6559 15.381 -29.3058 
0 56.1112 -29.5703 
-50.6688 56.1112 -29.5703 
0 15.381 -29.5703 
-50.6688 15.381 -29.5703 
-49.6817 56.1112 -29.3058 
0.987135 56.1112 -29.3058 
0.987135 15.381 -29.3058 
-49.6817 15.381 -29.3058 
0 61.0454 -26.3706 
-50.6688 61.0454 -26.3706 
7.88233 61.0454 -26.3706 
-42.7865 61.0454 -26.3706 
7.88233 61.0454 -28.8214 
-42.7865 61.0454 -28.8214 
0 61.0454 -28.8214 
-50.6688 61.0454 -28.8214 
0 58.4721 -28.8214 
-50.6688 58.4721 -28.8214 
-43.6537 58.4721 -28.8214 
7.01512 58.4721 -28.8214 
7.01512 58.4721 -26.3706 
-43.6537 58.4721 -26.3706 
-50.6688 58.4721 -26.3706 
0 58.4721 -26.3706 
7.88233 59.0984 -28.8214 
-42.7865 59.0984 -28.8214 
-42.7865 59.0984 -26.3706 
7.88233 59.0984 -26.3706 
-58.5511 61.0454 -28.8214 
-7.88232 61.0454 -28.8214 
-7.88232 61.0454 -26.3706 
-58.5511 61.0454 -26.3706 
-7.01512 58.4721 -26.3706 
-57.6839 58.4721 -26.3706 
-57.6839 58.4721 -28.8214 
-7.01512 58.4721 -28.8214 
-7.88232 59.0984 -26.3706 
-58.5511 59.0984 -26.3706 
-7.88232 59.0984 -28.8214 
-58.5511 59.0984 -28.8214 
-1.16923 60.7756 -26.4243 
-51.838 60.7756 -26.4243 
-1.16923 62.8271 -26.4243 
-51.838 62.8271 -26.4243 
-1.16923 62.8271 -28.7677 
-51.838 62.8271 -28.7677 
-1.16923 60.7756 -28.7677 
-51.838 60.7756 -28.7677 
1.17419 60.7756 -26.4243 
-49.4946 60.7756 -26.4243 
1.17419 62.8271 -26.4243 
-49.4946 62.8271 -26.4243 
1.17419 60.7756 -28.7677 
-49.4946 60.7756 -28.7677 
-49.4946 62.8271 -28.7677 
1.17419 62.8271 -28.7677 
-48.8275 64.4358 -25.7547 
1.84126 64.4358 -25.7547 
-48.8275 63.2368 -25.7547 
1.84126 63.2368 -25.7547 
-48.8275 63.2368 -29.4373 
1.84126 63.2368 -29.4373 
-48.8275 64.4358 -29.4373 
1.84126 64.4358 -29.4373 
-52.5101 63.2368 -29.4373 
-1.84126 63.2368 -29.4373 
-1.84126 64.4358 -29.4373 
-52.5101 64.4358 -29.4373 
-1.84126 63.2368 -25.7547 
-52.5101 63.2368 -25.7547 
-52.5101 64.4358 -25.7547 
-1.84126 64.4358 -25.7547 
5.52754 60.7756 -26.4243 
-45.1413 60.7756 -26.4243 
-45.1413 62.8271 -26.4243 
5.52754 62.8271 -26.4243 
-45.1413 62.8271 -28.7677 
5.52754 62.8271 -28.7677 
-45.1413 60.7756 -28.7677 
5.52754 60.7756 -28.7677 
7.87098 60.7756 -26.4243 
-42.7978 60.7756 -26.4243 
-42.7978 62.8271 -26.4243 
7.87098 62.8271 -26.4243 
-42.7978 60.7756 -28.7677 
7.87098 60.7756 -28.7677 
-42.7978 62.8271 -28.7677 
7.87098 62.8271 -28.7677 
8.53806 64.4358 -25.7547 
-42.1307 64.4358 -25.7547 
-42.1307 63.2368 -25.7547 
8.53806 63.2368 -25.7547 
-42.1307 63.2368 -29.4373 
8.53806 63.2368 -29.4373 
8.53806 64.4358 -29.4373 
-42.1307 64.4358 -29.4373 
-45.8133 63.2368 -29.4373 
4.85553 63.2368 -29.4373 
-45.8133 64.4358 -29.4373 
4.85553 64.4358 -29.4373 
4.85553 63.2368 -25.7547 
-45.8133 63.2368 -25.7547 
4.85553 64.4358 -25.7547 
-45.8133 64.4358 -25.7547 
-56.1964 60.7756 -26.4243 
-5.52754 60.7756 -26.4243 
-5.52754 60.7756 -28.7677 
-56.1964 60.7756 -28.7677 
-56.1964 62.8271 -28.7677 
-5.52754 62.8271 -28.7677 
-56.1964 62.8271 -26.4243 
-5.52754 62.8271 -26.4243 
-7.87098 60.7756 -26.4243 
-58.5398 60.7756 -26.4243 
-58.5398 62.8271 -26.4243 
-7.87098 62.8271 -26.4243 
-7.87098 60.7756 -28.7677 
-58.5398 60.7756 -28.7677 
-58.5398 62.8271 -28.7677 
-7.87098 62.8271 -28.7677 
-59.2069 64.4358 -25.7547 
-8.53806 64.4358 -25.7547 
-8.53806 64.4358 -29.4373 
-59.2069 64.4358 -29.4373 
-59.2069 63.2368 -29.4373 
-8.53806 63.2368 -29.4373 
-8.53806 63.2368 -25.7547 
-59.2069 63.2368 -25.7547 
-4.85553 64.4358 -29.4373 
-55.5243 64.4358 -29.4373 
-4.85553 63.2368 -29.4373 
-55.5243 63.2368 -29.4373 
-4.85553 63.2368 -25.7547 
-55.5243 63.2368 -25.7547 
-55.5243 64.4358 -25.7547 
-4.85553 64.4358 -25.7547 
-104.146 55.8275 -30.404 
-104.146 56.5053 -30.404 
-104.146 56.5053 -24.788 
-104.146 55.8275 -24.788 
-98.5296 55.8275 -30.404 
-98.5296 56.5053 -30.404 
-98.5296 56.5053 -24.788 
-98.5296 55.8275 -24.788 
-102.325 69.4423 0 
-102.325 66.5081 0 
-102.325 60.8674 -11.0705 
-102.325 60.8674 -16.8291 
-100.35 69.4423 0 
-100.35 60.8674 -16.8291 
-100.35 60.8674 -11.0705 
-100.35 66.5081 0 
-102.325 59.0277 -32.4374 
-102.325 61.642 -32.4374 
-102.325 61.642 0 
-102.325 59.0277 0 
-100.35 61.642 -32.4374 
-100.35 61.642 0 
-100.35 59.0277 -32.4374 
-100.35 59.0277 0 
-98.8926 15.4355 -29.0076 
-98.697 14.5746 -29.1205 
-98.2886 14.5746 -27.596 
-98.5144 15.4355 -27.596 
-98.697 14.5746 -26.0715 
-98.8926 15.4355 -26.1844 
-99.8131 14.5746 -24.9555 
-99.926 15.4355 -25.1511 
-101.338 14.5746 -24.547 
-101.338 15.4355 -24.7728 
-102.862 14.5746 -24.9555 
-102.749 15.4355 -25.1511 
-103.978 14.5746 -26.0715 
-103.783 15.4355 -26.1844 
-104.387 14.5746 -27.596 
-104.161 15.4355 -27.596 
-103.978 14.5746 -29.1205 
-103.783 15.4355 -29.0076 
-102.862 14.5746 -30.2365 
-102.749 15.4355 -30.0409 
-101.338 14.5746 -30.645 
-101.338 15.4355 -30.4192 
-99.8131 14.5746 -30.2365 
-99.926 15.4355 -30.0409 
-103.763 57.6429 -30.0213 
-103.763 57.6429 -25.1707 
-103.291 57.2174 -25.6429 
-103.291 57.2174 -29.5491 
-102.971 56.1112 -25.9621 
-102.971 56.1112 -29.2299 
-98.9123 57.6429 -30.0213 
-99.3845 57.2174 -29.5491 
-99.7037 56.1112 -29.2299 
-98.9123 57.6429 -25.1707 
-99.3845 57.2174 -25.6429 
-99.7037 56.1112 -25.9621 
-103.763 59.3449 -25.1707 
-103.763 59.3449 -30.0213 
-98.9123 59.3449 -30.0213 
-98.9123 59.3449 -25.1707 
-99.6278 56.1112 -28.5831 
-99.6278 15.381 -28.5831 
-99.3633 15.381 -27.596 
-99.3633 56.1112 -27.596 
-99.6278 15.381 -26.6089 
-99.6278 56.1112 -26.6089 
-100.35 15.381 -25.8862 
-100.35 56.1112 -25.8862 
-101.338 15.381 -25.6217 
-101.338 56.1112 -25.6217 
-102.325 15.381 -25.8862 
-102.325 56.1112 -25.8862 
-103.047 15.381 -26.6089 
-103.047 56.1112 -26.6089 
-103.312 15.381 -27.596 
-103.312 56.1112 -27.596 
-103.047 15.381 -28.5831 
-103.047 56.1112 -28.5831 
-102.325 15.381 -29.3058 
-102.325 56.1112 -29.3058 
-101.338 15.381 -29.5703 
-101.338 56.1112 -29.5703 
-100.35 15.381 -29.3058 
-100.35 56.1112 -29.3058 
-101.338 61.0454 -26.3706 
-101.338 61.0454 -28.8214 
-93.4553 61.0454 -28.8214 
-93.4553 61.0454 -26.3706 
-101.338 58.4721 -28.8214 
-101.338 58.4721 -26.3706 
-94.3225 58.4721 -26.3706 
-94.3225 58.4721 -28.8214 
-93.4553 59.0984 -26.3706 
-93.4553 59.0984 -28.8214 
-109.22 61.0454 -26.3706 
-109.22 61.0454 -28.8214 
-108.353 58.4721 -28.8214 
-108.353 58.4721 -26.3706 
-109.22 59.0984 -28.8214 
-109.22 59.0984 -26.3706 
-102.507 60.7756 -26.4243 
-102.507 60.7756 -28.7677 
-102.507 62.8271 -28.7677 
-102.507 62.8271 -26.4243 
-100.163 60.7756 -26.4243 
-100.163 62.8271 -26.4243 
-100.163 60.7756 -28.7677 
-100.163 62.8271 -28.7677 
-99.4963 64.4358 -25.7547 
-99.4963 64.4358 -29.4373 
-99.4963 63.2368 -29.4373 
-99.4963 63.2368 -25.7547 
-103.179 64.4358 -29.4373 
-103.179 63.2368 -29.4373 
-103.179 63.2368 -25.7547 
-103.179 64.4358 -25.7547 
-95.8101 60.7756 -26.4243 
-95.8101 60.7756 -28.7677 
-95.8101 62.8271 -28.7677 
-95.8101 62.8271 -26.4243 
-93.4666 60.7756 -26.4243 
-93.4666 62.8271 -26.4243 
-93.4666 60.7756 -28.7677 
-93.4666 62.8271 -28.7677 
-92.7995 64.4358 -25.7547 
-92.7995 64.4358 -29.4373 
-92.7995 63.2368 -29.4373 
-92.7995 63.2368 -25.7547 
-96.4821 64.4358 -29.4373 
-96.4821 63.2368 -29.4373 
-96.4821 63.2368 -25.7547 
-96.4821 64.4358 -25.7547 
-106.865 60.7756 -26.4243 
-106.865 62.8271 -26.4243 
-106.865 62.8271 -28.7677 
-106.865 60.7756 -28.7677 
-109.209 60.7756 -26.4243 
-109.209 62.8271 -26.4243 
-109.209 60.7756 -28.7677 
-109.209 62.8271 -28.7677 
-109.876 64.4358 -25.7547 
-109.876 63.2368 -25.7547 
-109.876 63.2368 -29.4373 
-109.876 64.4358 -29.4373 
-106.193 63.2368 -29.4373 
-106.193 64.4358 -29.4373 
-106.193 63.2368 -25.7547 
-106.193 64.4358 -25.7547 
-102.325 60.8674 16.8291 
-102.325 60.8674 11.0705 
-100.35 60.8674 16.8291 
-100.35 60.8674 11.0705 
-102.325 59.0277 32.4374 
-102.325 61.642 32.4374 
-100.35 61.642 32.4374 
-100.35 59.0277 32.4374 
-102.507 73.8474 -1.17173 
-102.507 75.8989 -1.17173 
-102.507 75.8989 1.17173 
-102.507 73.8474 1.17173 
-100.163 73.8474 -1.17173 
-100.163 75.8989 -1.17173 
-100.163 73.8474 1.17173 
-100.163 75.8989 1.17173 
-99.4963 77.5076 -1.84126 
-99.4963 76.3086 -1.84126 
-99.4963 76.3086 1.84126 
-99.4963 77.5076 1.84126 
-103.179 76.3086 1.84126 
-103.179 77.5076 1.84126 
-103.179 76.3086 -1.84126 
-103.179 77.5076 -1.84126 
-101.338 74.1172 -1.22541 
-93.4553 74.1172 -1.22541 
-93.4553 74.1172 1.22539 
-101.338 74.1172 1.22539 
-101.338 71.5439 1.22539 
-94.3225 71.5439 1.22539 
-94.3225 71.5439 -1.22541 
-101.338 71.5439 -1.22541 
-93.4553 72.1702 1.22539 
-93.4553 72.1702 -1.22541 
-109.22 74.1172 1.22539 
-109.22 74.1172 -1.22541 
-108.353 71.5439 -1.22541 
-108.353 71.5439 1.22539 
-109.22 72.1702 -1.22541 
-109.22 72.1702 1.22539 
-102.507 68.5219 -1.17173 
-102.507 70.5733 -1.17173 
-102.507 70.5733 1.17173 
-102.507 68.5219 1.17173 
-100.163 68.5219 -1.17173 
-100.163 70.5733 -1.17173 
-100.163 68.5219 1.17173 
-100.163 70.5733 1.17173 
-99.4963 72.1821 -1.84126 
-99.4963 70.9831 -1.84126 
-99.4963 70.9831 1.84126 
-99.4963 72.1821 1.84126 
-103.179 70.9831 1.84126 
-103.179 72.1821 1.84126 
-103.179 70.9831 -1.84126 
-103.179 72.1821 -1.84126 
-95.8101 73.8474 -1.17173 
-95.8101 75.8989 -1.17173 
-95.8101 75.8989 1.17173 
-95.8101 73.8474 1.17173 
-93.4666 73.8474 -1.17173 
-93.4666 75.8989 -1.17173 
-93.4666 73.8474 1.17173 
-93.4666 75.8989 1.17173 
-92.7995 77.5076 -1.84126 
-92.7995 76.3086 -1.84126 
-92.7995 76.3086 1.84126 
-92.7995 77.5076 1.84126 
-96.4821 76.3086 1.84126 
-96.4821 77.5076 1.84126 
-96.4821 76.3086 -1.84126 
-96.4821 77.5076 -1.84126 
-106.865 73.8474 -1.17173 
-106.865 73.8474 1.17173 
-106.865 75.8989 1.17173 
-106.865 75.8989 -1.17173 
-109.209 73.8474 -1.17173 
-109.209 75.8989 -1.17173 
-109.209 73.8474 1.17173 
-109.209 75.8989 1.17173 
-109.876 77.5076 -1.84126 
-109.876 77.5076 1.84126 
-109.876 76.3086 1.84126 
-109.876 76.3086 -1.84126 
-106.193 77.5076 1.84126 
-106.193 76.3086 1.84126 
-106.193 76.3086 -1.84126 
-106.193 77.5076 -1.84126 
-104.146 55.8275 30.404 
-104.146 55.8275 24.788 
-104.146 56.5053 24.788 
-104.146 56.5053 30.404 
-98.5296 55.8275 30.404 
-98.5296 56.5053 30.404 
-98.5296 56.5053 24.788 
-98.5296 55.8275 24.788 
-98.8926 15.4355 29.0076 
-98.5144 15.4355 27.596 
-98.2886 14.5746 27.596 
-98.697 14.5746 29.1205 
-98.8926 15.4355 26.1844 
-98.697 14.5746 26.0715 
-99.926 15.4355 25.1511 
-99.8131 14.5746 24.9555 
-101.338 15.4355 24.7728 
-101.338 14.5746 24.547 
-102.749 15.4355 25.1511 
-102.862 14.5746 24.9555 
-103.783 15.4355 26.1844 
-103.978 14.5746 26.0715 
-104.161 15.4355 27.596 
-104.387 14.5746 27.596 
-103.783 15.4355 29.0076 
-103.978 14.5746 29.1205 
-102.749 15.4355 30.0409 
-102.862 14.5746 30.2365 
-101.338 15.4355 30.4192 
-101.338 14.5746 30.645 
-99.926 15.4355 30.0409 
-99.8131 14.5746 30.2365 
-103.763 57.6429 30.0213 
-103.291 57.2174 29.5491 
-103.291 57.2174 25.6429 
-103.763 57.6429 25.1707 
-102.971 56.1112 29.2299 
-102.971 56.1112 25.9621 
-98.9123 57.6429 30.0213 
-99.3845 57.2174 29.5491 
-99.7037 56.1112 29.2299 
-98.9123 57.6429 25.1707 
-99.3845 57.2174 25.6429 
-99.7037 56.1112 25.9621 
-103.763 59.3449 25.1707 
-103.763 59.3449 30.0213 
-98.9123 59.3449 30.0213 
-98.9123 59.3449 25.1707 
-99.6278 56.1112 28.5831 
-99.3633 56.1112 27.596 
-99.3633 15.381 27.596 
-99.6278 15.381 28.5831 
-99.6278 56.1112 26.6089 
-99.6278 15.381 26.6089 
-100.35 56.1112 25.8862 
-100.35 15.381 25.8862 
-101.338 56.1112 25.6217 
-101.338 15.381 25.6217 
-102.325 56.1112 25.8862 
-102.325 15.381 25.8862 
-103.047 56.1112 26.6089 
-103.047 15.381 26.6089 
-103.312 56.1112 27.596 
-103.312 15.381 27.596 
-103.047 56.1112 28.5831 
-103.047 15.381 28.5831 
-102.325 56.1112 29.3058 
-102.325 15.381 29.3058 
-101.338 56.1112 29.5703 
-101.338 15.381 29.5703 
-100.35 56.1112 29.3058 
-100.35 15.381 29.3058 
-101.338 61.0454 26.3706 
-93.4553 61.0454 26.3706 
-93.4553 61.0454 28.8214 
-101.338 61.0454 28.8214 
-101.338 58.4721 28.8214 
-94.3225 58.4721 28.8214 
-94.3225 58.4721 26.3706 
-101.338 58.4721 26.3706 
-93.4553 59.0984 28.8214 
-93.4553 59.0984 26.3706 
-109.22 61.0454 28.8214 
-109.22 61.0454 26.3706 
-108.353 58.4721 26.3706 
-108.353 58.4721 28.8214 
-109.22 59.0984 26.3706 
-109.22 59.0984 28.8214 
-102.507 60.7756 26.4243 
-102.507 62.8271 26.4243 
-102.507 62.8271 28.7677 
-102.507 60.7756 28.7677 
-100.163 60.7756 26.4243 
-100.163 62.8271 26.4243 
-100.163 60.7756 28.7677 
-100.163 62.8271 28.7677 
-99.4963 64.4358 25.7547 
-99.4963 63.2368 25.7547 
-99.4963 63.2368 29.4373 
-99.4963 64.4358 29.4373 
-103.179 63.2368 29.4373 
-103.179 64.4358 29.4373 
-103.179 63.2368 25.7547 
-103.179 64.4358 25.7547 
-95.8101 60.7756 26.4243 
-95.8101 62.8271 26.4243 
-95.8101 62.8271 28.7677 
-95.8101 60.7756 28.7677 
-93.4666 60.7756 26.4243 
-93.4666 62.8271 26.4243 
-93.4666 60.7756 28.7677 
-93.4666 62.8271 28.7677 
-92.7995 64.4358 25.7547 
-92.7995 63.2368 25.7547 
-92.7995 63.2368 29.4373 
-92.7995 64.4358 29.4373 
-96.4821 63.2368 29.4373 
-96.4821 64.4358 29.4373 
-96.4821 63.2368 25.7547 
-96.4821 64.4358 25.7547 
-106.865 60.7756 26.4243 
-106.865 60.7756 28.7677 
-106.865 62.8271 28.7677 
-106.865 62.8271 26.4243 
-109.209 60.7756 26.4243 
-109.209 62.8271 26.4243 
-109.209 60.7756 28.7677 
-109.209 62.8271 28.7677 
-109.876 64.4358 25.7547 
-109.876 64.4358 29.4373 
-109.876 63.2368 29.4373 
-109.876 63.2368 25.7547 
-106.193 64.4358 29.4373 
-106.193 63.2368 29.4373 
-106.193 63.2368 25.7547 
-106.193 64.4358 25.7547 
-154.814 55.8275 -30.404 
-154.814 56.5053 -30.404 
-154.814 56.5053 -24.788 
-154.814 55.8275 -24.788 
-149.198 55.8275 -30.404 
-149.198 56.5053 -30.404 
-149.198 56.5053 -24.788 
-149.198 55.8275 -24.788 
-152.994 69.4423 0 
-152.994 66.5081 0 
-152.994 60.8674 -11.0705 
-152.994 60.8674 -16.8291 
-151.019 69.4423 0 
-151.019 60.8674 -16.8291 
-151.019 60.8674 -11.0705 
-151.019 66.5081 0 
-152.994 59.0277 -32.4374 
-152.994 61.642 -32.4374 
-152.994 61.642 0 
-152.994 59.0277 0 
-151.019 61.642 -32.4374 
-151.019 61.642 0 
-151.019 59.0277 -32.4374 
-151.019 59.0277 0 
-149.561 15.4355 -29.0076 
-149.366 14.5746 -29.1205 
-148.957 14.5746 -27.596 
-149.183 15.4355 -27.596 
-149.366 14.5746 -26.0715 
-149.561 15.4355 -26.1844 
-150.482 14.5746 -24.9555 
-150.595 15.4355 -25.1511 
-152.006 14.5746 -24.547 
-152.006 15.4355 -24.7728 
-153.531 14.5746 -24.9555 
-153.418 15.4355 -25.1511 
-154.647 14.5746 -26.0715 
-154.451 15.4355 -26.1844 
-155.055 14.5746 -27.596 
-154.83 15.4355 -27.596 
-154.647 14.5746 -29.1205 
-154.451 15.4355 -29.0076 
-153.531 14.5746 -30.2365 
-153.418 15.4355 -30.0409 
-152.006 14.5746 -30.645 
-152.006 15.4355 -30.4192 
-150.482 14.5746 -30.2365 
-150.595 15.4355 -30.0409 
-154.432 57.6429 -30.0213 
-154.432 57.6429 -25.1707 
-153.96 57.2174 -25.6429 
-153.96 57.2174 -29.5491 
-153.64 56.1112 -25.9621 
-153.64 56.1112 -29.2299 
-149.581 57.6429 -30.0213 
-150.053 57.2174 -29.5491 
-150.373 56.1112 -29.2299 
-149.581 57.6429 -25.1707 
-150.053 57.2174 -25.6429 
-150.373 56.1112 -25.9621 
-154.432 59.3449 -25.1707 
-154.432 59.3449 -30.0213 
-149.581 59.3449 -30.0213 
-149.581 59.3449 -25.1707 
-150.297 56.1112 -28.5831 
-150.297 15.381 -28.5831 
-150.032 15.381 -27.596 
-150.032 56.1112 -27.596 
-150.297 15.381 -26.6089 
-150.297 56.1112 -26.6089 
-151.019 15.381 -25.8862 
-151.019 56.1112 -25.8862 
-152.006 15.381 -25.6217 
-152.006 56.1112 -25.6217 
-152.994 15.381 -25.8862 
-152.994 56.1112 -25.8862 
-153.716 15.381 -26.6089 
-153.716 56.1112 -26.6089 
-153.981 15.381 -27.596 
-153.981 56.1112 -27.596 
-153.716 15.381 -28.5831 
-153.716 56.1112 -28.5831 
-152.994 15.381 -29.3058 
-152.994 56.1112 -29.3058 
-152.006 15.381 -29.5703 
-152.006 56.1112 -29.5703 
-151.019 15.381 -29.3058 
-151.019 56.1112 -29.3058 
-152.006 61.0454 -26.3706 
-152.006 61.0454 -28.8214 
-144.124 61.0454 -28.8214 
-144.124 61.0454 -26.3706 
-152.006 58.4721 -28.8214 
-152.006 58.4721 -26.3706 
-144.991 58.4721 -26.3706 
-144.991 58.4721 -28.8214 
-144.124 59.0984 -26.3706 
-144.124 59.0984 -28.8214 
-159.889 61.0454 -26.3706 
-159.889 61.0454 -28.8214 
-159.022 58.4721 -28.8214 
-159.022 58.4721 -26.3706 
-159.889 59.0984 -28.8214 
-159.889 59.0984 -26.3706 
-153.176 60.7756 -26.4243 
-153.176 60.7756 -28.7677 
-153.176 62.8271 -28.7677 
-153.176 62.8271 -26.4243 
-150.832 60.7756 -26.4243 
-150.832 62.8271 -26.4243 
-150.832 60.7756 -28.7677 
-150.832 62.8271 -28.7677 
-150.165 64.4358 -25.7547 
-150.165 64.4358 -29.4373 
-150.165 63.2368 -29.4373 
-150.165 63.2368 -25.7547 
-153.848 64.4358 -29.4373 
-153.848 63.2368 -29.4373 
-153.848 63.2368 -25.7547 
-153.848 64.4358 -25.7547 
-146.479 60.7756 -26.4243 
-146.479 60.7756 -28.7677 
-146.479 62.8271 -28.7677 
-146.479 62.8271 -26.4243 
-144.135 60.7756 -26.4243 
-144.135 62.8271 -26.4243 
-144.135 60.7756 -28.7677 
-144.135 62.8271 -28.7677 
-143.468 64.4358 -25.7547 
-143.468 64.4358 -29.4373 
-143.468 63.2368 -29.4373 
-143.468 63.2368 -25.7547 
-147.151 64.4358 -29.4373 
-147.151 63.2368 -29.4373 
-147.151 63.2368 -25.7547 
-147.151 64.4358 -25.7547 
-157.534 60.7756 -26.4243 
-157.534 62.8271 -26.4243 
-157.534 62.8271 -28.7677 
-157.534 60.7756 -28.7677 
-159.877 60.7756 -26.4243 
-159.877 62.8271 -26.4243 
-159.877 60.7756 -28.7677 
-159.877 62.8271 -28.7677 
-160.544 64.4358 -25.7547 
-160.544 63.2368 -25.7547 
-160.544 63.2368 -29.4373 
-160.544 64.4358 -29.4373 
-156.862 63.2368 -29.4373 
-156.862 64.4358 -29.4373 
-156.862 63.2368 -25.7547 
-156.862 64.4358 -25.7547 
-152.994 60.8674 16.8291 
-152.994 60.8674 11.0705 
-151.019 60.8674 16.8291 
-151.019 60.8674 11.0705 
-152.994 59.0277 32.4374 
-152.994 61.642 32.4374 
-151.019 61.642 32.4374 
-151.019 59.0277 32.4374 
-153.176 73.8474 -1.17173 
-153.176 75.8989 -1.17173 
-153.176 75.8989 1.17173 
-153.176 73.8474 1.17173 
-150.832 73.8474 -1.17173 
-150.832 75.8989 -1.17173 
-150.832 73.8474 1.17173 
-150.832 75.8989 1.17173 
-150.165 77.5076 -1.84126 
-150.165 76.3086 -1.84126 
-150.165 76.3086 1.84126 
-150.165 77.5076 1.84126 
-153.848 76.3086 1.84126 
-153.848 77.5076 1.84126 
-153.848 76.3086 -1.84126 
-153.848 77.5076 -1.84126 
-152.006 74.1172 -1.22541 
-144.124 74.1172 -1.22541 
-144.124 74.1172 1.22539 
-152.006 74.1172 1.22539 
-152.006 71.5439 1.22539 
-144.991 71.5439 1.22539 
-144.991 71.5439 -1.22541 
-152.006 71.5439 -1.22541 
-144.124 72.1702 1.22539 
-144.124 72.1702 -1.22541 
-159.889 74.1172 1.22539 
-159.889 74.1172 -1.22541 
-159.022 71.5439 -1.22541 
-159.022 71.5439 1.22539 
-159.889 72.1702 -1.22541 
-159.889 72.1702 1.22539 
-153.176 68.5219 -1.17173 
-153.176 70.5733 -1.17173 
-153.176 70.5733 1.17173 
-153.176 68.5219 1.17173 
-150.832 68.5219 -1.17173 
-150.832 70.5733 -1.17173 
-150.832 68.5219 1.17173 
-150.832 70.5733 1.17173 
-150.165 72.1821 -1.84126 
-150.165 70.9831 -1.84126 
-150.165 70.9831 1.84126 
-150.165 72.1821 1.84126 
-153.848 70.9831 1.84126 
-153.848 72.1821 1.84126 
-153.848 70.9831 -1.84126 
-153.848 72.1821 -1.84126 
-146.479 73.8474 -1.17173 
-146.479 75.8989 -1.17173 
-146.479 75.8989 1.17173 
-146.479 73.8474 1.17173 
-144.135 73.8474 -1.17173 
-144.135 75.8989 -1.17173 
-144.135 73.8474 1.17173 
-144.135 75.8989 1.17173 
-143.468 77.5076 -1.84126 
-143.468 76.3086 -1.84126 
-143.468 76.3086 1.84126 
-143.468 77.5076 1.84126 
-147.151 76.3086 1.84126 
-147.151 77.5076 1.84126 
-147.151 76.3086 -1.84126 
-147.151 77.5076 -1.84126 
-157.534 73.8474 -1.17173 
-157.534 73.8474 1.17173 
-157.534 75.8989 1.17173 
-157.534 75.8989 -1.17173 
-159.877 73.8474 -1.17173 
-159.877 75.8989 -1.17173 
-159.877 73.8474 1.17173 
-159.877 75.8989 1.17173 
-160.544 77.5076 -1.84126 
-160.544 77.5076 1.84126 
-160.544 76.3086 1.84126 
-160.544 76.3086 -1.84126 
-156.862 77.5076 1.84126 
-156.862 76.3086 1.84126 
-156.862 76.3086 -1.84126 
-156.862 77.5076 -1.84126 
-154.814 55.8275 30.404 
-154.814 55.8275 24.788 
-154.814 56.5053 24.788 
-154.814 56.5053 30.404 
-149.198 55.8275 30.404 
-149.198 56.5053 30.404 
-149.198 56.5053 24.788 
-149.198 55.8275 24.788 
-149.561 15.4355 29.0076 
-149.183 15.4355 27.596 
-148.957 14.5746 27.596 
-149.366 14.5746 29.1205 
-149.561 15.4355 26.1844 
-149.366 14.5746 26.0715 
-150.595 15.4355 25.1511 
-150.482 14.5746 24.9555 
-152.006 15.4355 24.7728 
-152.006 14.5746 24.547 
-153.418 15.4355 25.1511 
-153.531 14.5746 24.9555 
-154.451 15.4355 26.1844 
-154.647 14.5746 26.0715 
-154.83 15.4355 27.596 
-155.055 14.5746 27.596 
-154.451 15.4355 29.0076 
-154.647 14.5746 29.1205 
-153.418 15.4355 30.0409 
-153.531 14.5746 30.2365 
-152.006 15.4355 30.4192 
-152.006 14.5746 30.645 
-150.595 15.4355 30.0409 
-150.482 14.5746 30.2365 
-154.432 57.6429 30.0213 
-153.96 57.2174 29.5491 
-153.96 57.2174 25.6429 
-154.432 57.6429 25.1707 
-153.64 56.1112 29.2299 
-153.64 56.1112 25.9621 
-149.581 57.6429 30.0213 
-150.053 57.2174 29.5491 
-150.373 56.1112 29.2299 
-149.581 57.6429 25.1707 
-150.053 57.2174 25.6429 
-150.373 56.1112 25.9621 
-154.432 59.3449 25.1707 
-154.432 59.3449 30.0213 
-149.581 59.3449 30.0213 
-149.581 59.3449 25.1707 
-150.297 56.1112 28.5831 
-150.032 56.1112 27.596 
-150.032 15.381 27.596 
-150.297 15.381 28.5831 
-150.297 56.1112 26.6089 
-150.297 15.381 26.6089 
-151.019 56.1112 25.8862 
-151.019 15.381 25.8862 
-152.006 56.1112 25.6217 
-152.006 15.381 25.6217 
-152.994 56.1112 25.8862 
-152.994 15.381 25.8862 
-153.716 56.1112 26.6089 
-153.716 15.381 26.6089 
-153.981 56.1112 27.596 
-153.981 15.381 27.596 
-153.716 56.1112 28.5831 
-153.716 15.381 28.5831 
-152.994 56.1112 29.3058 
-152.994 15.381 29.3058 
-152.006 56.1112 29.5703 
-152.006 15.381 29.5703 
-151.019 56.1112 29.3058 
-151.019 15.381 29.3058 
-152.006 61.0454 26.3706 
-144.124 61.0454 26.3706 
-144.124 61.0454 28.8214 
-152.006 61.0454 28.8214 
-152.006 58.4721 28.8214 
-144.991 58.4721 28.8214 
-144.991 58.4721 26.3706 
-152.006 58.4721 26.3706 
-144.124 59.0984 28.8214 
-144.124 59.0984 26.3706 
-159.889 61.0454 28.8214 
-159.889 61.0454 26.3706 
-159.022 58.4721 26.3706 
-159.022 58.4721 28.8214 
-159.889 59.0984 26.3706 
-159.889 59.0984 28.8214 
-153.176 60.7756 26.4243 
-153.176 62.8271 26.4243 
-153.176 62.8271 28.7677 
-153.176 60.7756 28.7677 
-150.832 60.7756 26.4243 
-150.832 62.8271 26.4243 
-150.832 60.7756 28.7677 
-150.832 62.8271 28.7677 
-150.165 64.4358 25.7547 
-150.165 63.2368 25.7547 
-150.165 63.2368 29.4373 
-150.165 64.4358 29.4373 
-153.848 63.2368 29.4373 
-153.848 64.4358 29.4373 
-153.848 63.2368 25.7547 
-153.848 64.4358 25.7547 
-146.479 60.7756 26.4243 
-146.479 62.8271 26.4243 
-146.479 62.8271 28.7677 
-146.479 60.7756 28.7677 
-144.135 60.7756 26.4243 
-144.135 62.8271 26.4243 
-144.135 60.7756 28.7677 
-144.135 62.8271 28.7677 
-143.468 64.4358 25.7547 
-143.468 63.2368 25.7547 
-143.468 63.2368 29.4373 
-143.468 64.4358 29.4373 
-147.151 63.2368 29.4373 
-147.151 64.4358 29.4373 
-147.151 63.2368 25.7547 
-147.151 64.4358 25.7547 
-157.534 60.7756 26.4243 
-157.534 60.7756 28.7677 
-157.534 62.8271 28.7677 
-157.534 62.8271 26.4243 
-159.877 60.7756 26.4243 
-159.877 62.8271 26.4243 
-159.877 60.7756 28.7677 
-159.877 62.8271 28.7677 
-160.544 64.4358 25.7547 
-160.544 64.4358 29.4373 
-160.544 63.2368 29.4373 
-160.544 63.2368 25.7547 
-156.862 64.4358 29.4373 
-156.862 63.2368 29.4373 
-156.862 63.2368 25.7547 
-156.862 64.4358 25.7547 
-205.483 55.8275 -30.404 
-205.483 56.5053 -30.404 
-205.483 56.5053 -24.788 
-205.483 55.8275 -24.788 
-199.867 55.8275 -30.404 
-199.867 56.5053 -30.404 
-199.867 56.5053 -24.788 
-199.867 55.8275 -24.788 
-203.663 69.4423 0 
-203.663 66.5081 0 
-203.663 60.8674 -11.0705 
-203.663 60.8674 -16.8291 
-201.688 69.4423 0 
-201.688 60.8674 -16.8291 
-201.688 60.8674 -11.0705 
-201.688 66.5081 0 
-203.663 59.0277 -32.4374 
-203.663 61.642 -32.4374 
-203.663 61.642 0 
-203.663 59.0277 0 
-201.688 61.642 -32.4374 
-201.688 61.642 0 
-201.688 59.0277 -32.4374 
-201.688 59.0277 0 
-200.23 15.4355 -29.0076 
-200.035 14.5746 -29.1205 
-199.626 14.5746 -27.596 
-199.852 15.4355 -27.596 
-200.035 14.5746 -26.0715 
-200.23 15.4355 -26.1844 
-201.151 14.5746 -24.9555 
-201.264 15.4355 -25.1511 
-202.675 14.5746 -24.547 
-202.675 15.4355 -24.7728 
-204.2 14.5746 -24.9555 
-204.087 15.4355 -25.1511 
-205.316 14.5746 -26.0715 
-205.12 15.4355 -26.1844 
-205.724 14.5746 -27.596 
-205.498 15.4355 -27.596 
-205.316 14.5746 -29.1205 
-205.12 15.4355 -29.0076 
-204.2 14.5746 -30.2365 
-204.087 15.4355 -30.0409 
-202.675 14.5746 -30.645 
-202.675 15.4355 -30.4192 
-201.151 14.5746 -30.2365 
-201.264 15.4355 -30.0409 
-205.1 57.6429 -30.0213 
-205.1 57.6429 -25.1707 
-204.628 57.2174 -25.6429 
-204.628 57.2174 -29.5491 
-204.309 56.1112 -25.9621 
-204.309 56.1112 -29.2299 
-200.25 57.6429 -30.0213 
-200.722 57.2174 -29.5491 
-201.041 56.1112 -29.2299 
-200.25 57.6429 -25.1707 
-200.722 57.2174 -25.6429 
-201.041 56.1112 -25.9621 
-205.1 59.3449 -25.1707 
-205.1 59.3449 -30.0213 
-200.25 59.3449 -30.0213 
-200.25 59.3449 -25.1707 
-200.965 56.1112 -28.5831 
-200.965 15.381 -28.5831 
-200.701 15.381 -27.596 
-200.701 56.1112 -27.596 
-200.965 15.381 -26.6089 
-200.965 56.1112 -26.6089 
-201.688 15.381 -25.8862 
-201.688 56.1112 -25.8862 
-202.675 15.381 -25.6217 
-202.675 56.1112 -25.6217 
-203.662 15.381 -25.8862 
-203.662 56.1112 -25.8862 
-204.385 15.381 -26.6089 
-204.385 56.1112 -26.6089 
-204.649 15.381 -27.596 
-204.649 56.1112 -27.596 
-204.385 15.381 -28.5831 
-204.385 56.1112 -28.5831 
-203.662 15.381 -29.3058 
-203.662 56.1112 -29.3058 
-202.675 15.381 -29.5703 
-202.675 56.1112 -29.5703 
-201.688 15.381 -29.3058 
-201.688 56.1112 -29.3058 
-202.675 61.0454 -26.3706 
-202.675 61.0454 -28.8214 
-194.793 61.0454 -28.8214 
-194.793 61.0454 -26.3706 
-202.675 58.4721 -28.8214 
-202.675 58.4721 -26.3706 
-195.66 58.4721 -26.3706 
-195.66 58.4721 -28.8214 
-194.793 59.0984 -26.3706 
-194.793 59.0984 -28.8214 
-210.558 61.0454 -26.3706 
-210.558 61.0454 -28.8214 
-209.69 58.4721 -28.8214 
-209.69 58.4721 -26.3706 
-210.558 59.0984 -28.8214 
-210.558 59.0984 -26.3706 
-203.844 60.7756 -26.4243 
-203.844 60.7756 -28.7677 
-203.844 62.8271 -28.7677 
-203.844 62.8271 -26.4243 
-201.501 60.7756 -26.4243 
-201.501 62.8271 -26.4243 
-201.501 60.7756 -28.7677 
-201.501 62.8271 -28.7677 
-200.834 64.4358 -25.7547 
-200.834 64.4358 -29.4373 
-200.834 63.2368 -29.4373 
-200.834 63.2368 -25.7547 
-204.516 64.4358 -29.4373 
-204.516 63.2368 -29.4373 
-204.516 63.2368 -25.7547 
-204.516 64.4358 -25.7547 
-197.148 60.7756 -26.4243 
-197.148 60.7756 -28.7677 
-197.148 62.8271 -28.7677 
-197.148 62.8271 -26.4243 
-194.804 60.7756 -26.4243 
-194.804 62.8271 -26.4243 
-194.804 60.7756 -28.7677 
-194.804 62.8271 -28.7677 
-194.137 64.4358 -25.7547 
-194.137 64.4358 -29.4373 
-194.137 63.2368 -29.4373 
-194.137 63.2368 -25.7547 
-197.82 64.4358 -29.4373 
-197.82 63.2368 -29.4373 
-197.82 63.2368 -25.7547 
-197.82 64.4358 -25.7547 
-208.203 60.7756 -26.4243 
-208.203 62.8271 -26.4243 
-208.203 62.8271 -28.7677 
-208.203 60.7756 -28.7677 
-210.546 60.7756 -26.4243 
-210.546 62.8271 -26.4243 
-210.546 60.7756 -28.7677 
-210.546 62.8271 -28.7677 
-211.213 64.4358 -25.7547 
-211.213 63.2368 -25.7547 
-211.213 63.2368 -29.4373 
-211.213 64.4358 -29.4373 
-207.531 63.2368 -29.4373 
-207.531 64.4358 -29.4373 
-207.531 63.2368 -25.7547 
-207.531 64.4358 -25.7547 
-203.663 60.8674 16.8291 
-203.663 60.8674 11.0705 
-201.688 60.8674 16.8291 
-201.688 60.8674 11.0705 
-203.663 59.0277 32.4374 
-203.663 61.642 32.4374 
-201.688 61.642 32.4374 
-201.688 59.0277 32.4374 
-203.844 73.8474 -1.17173 
-203.844 75.8989 -1.17173 
-203.844 75.8989 1.17173 
-203.844 73.8474 1.17173 
-201.501 73.8474 -1.17173 
-201.501 75.8989 -1.17173 
-201.501 73.8474 1.17173 
-201.501 75.8989 1.17173 
-200.834 77.5076 -1.84126 
-200.834 76.3086 -1.84126 
-200.834 76.3086 1.84126 
-200.834 77.5076 1.84126 
-204.516 76.3086 1.84126 
-204.516 77.5076 1.84126 
-204.516 76.3086 -1.84126 
-204.516 77.5076 -1.84126 
-202.675 74.1172 -1.22541 
-194.793 74.1172 -1.22541 
-194.793 74.1172 1.22539 
-202.675 74.1172 1.22539 
-202.675 71.5439 1.22539 
-195.66 71.5439 1.22539 
-195.66 71.5439 -1.22541 
-202.675 71.5439 -1.22541 
-194.793 72.1702 1.22539 
-194.793 72.1702 -1.22541 
-210.558 74.1172 1.22539 
-210.558 74.1172 -1.22541 
-209.69 71.5439 -1.22541 
-209.69 71.5439 1.22539 
-210.558 72.1702 -1.22541 
-210.558 72.1702 1.22539 
-203.844 68.5219 -1.17173 
-203.844 70.5733 -1.17173 
-203.844 70.5733 1.17173 
-203.844 68.5219 1.17173 
-201.501 68.5219 -1.17173 
-201.501 70.5733 -1.17173 
-201.501 68.5219 1.17173 
-201.501 70.5733 1.17173 
-200.834 72.1821 -1.84126 
-200.834 70.9831 -1.84126 
-200.834 70.9831 1.84126 
-200.834 72.1821 1.84126 
-204.516 70.9831 1.84126 
-204.516 72.1821 1.84126 
-204.516 70.9831 -1.84126 
-204.516 72.1821 -1.84126 
-197.148 73.8474 -1.17173 
-197.148 75.8989 -1.17173 
-197.148 75.8989 1.17173 
-197.148 73.8474 1.17173 
-194.804 73.8474 -1.17173 
-194.804 75.8989 -1.17173 
-194.804 73.8474 1.17173 
-194.804 75.8989 1.17173 
-194.137 77.5076 -1.84126 
-194.137 76.3086 -1.84126 
-194.137 76.3086 1.84126 
-194.137 77.5076 1.84126 
-197.82 76.3086 1.84126 
-197.82 77.5076 1.84126 
-197.82 76.3086 -1.84126 
-197.82 77.5076 -1.84126 
-208.203 73.8474 -1.17173 
-208.203 73.8474 1.17173 
-208.203 75.8989 1.17173 
-208.203 75.8989 -1.17173 
-210.546 73.8474 -1.17173 
-210.546 75.8989 -1.17173 
-210.546 73.8474 1.17173 
-210.546 75.8989 1.17173 
-211.213 77.5076 -1.84126 
-211.213 77.5076 1.84126 
-211.213 76.3086 1.84126 
-211.213 76.3086 -1.84126 
-207.531 77.5076 1.84126 
-207.531 76.3086 1.84126 
-207.531 76.3086 -1.84126 
-207.531 77.5076 -1.84126 
-205.483 55.8275 30.404 
-205.483 55.8275 24.788 
-205.483 56.5053 24.788 
-205.483 56.5053 30.404 
-199.867 55.8275 30.404 
-199.867 56.5053 30.404 
-199.867 56.5053 24.788 
-199.867 55.8275 24.788 
-200.23 15.4355 29.0076 
-199.852 15.4355 27.596 
-199.626 14.5746 27.596 
-200.035 14.5746 29.1205 
-200.23 15.4355 26.1844 
-200.035 14.5746 26.0715 
-201.264 15.4355 25.1511 
-201.151 14.5746 24.9555 
-202.675 15.4355 24.7728 
-202.675 14.5746 24.547 
-204.087 15.4355 25.1511 
-204.2 14.5746 24.9555 
-205.12 15.4355 26.1844 
-205.316 14.5746 26.0715 
-205.498 15.4355 27.596 
-205.724 14.5746 27.596 
-205.12 15.4355 29.0076 
-205.316 14.5746 29.1205 
-204.087 15.4355 30.0409 
-204.2 14.5746 30.2365 
-202.675 15.4355 30.4192 
-202.675 14.5746 30.645 
-201.264 15.4355 30.0409 
-201.151 14.5746 30.2365 
-205.1 57.6429 30.0213 
-204.628 57.2174 29.5491 
-204.628 57.2174 25.6429 
-205.1 57.6429 25.1707 
-204.309 56.1112 29.2299 
-204.309 56.1112 25.9621 
-200.25 57.6429 30.0213 
-200.722 57.2174 29.5491 
-201.041 56.1112 29.2299 
-200.25 57.6429 25.1707 
-200.722 57.2174 25.6429 
-201.041 56.1112 25.9621 
-205.1 59.3449 25.1707 
-205.1 59.3449 30.0213 
-200.25 59.3449 30.0213 
-200.25 59.3449 25.1707 
-200.965 56.1112 28.5831 
-200.701 56.1112 27.596 
-200.701 15.381 27.596 
-200.965 15.381 28.5831 
-200.965 56.1112 26.6089 
-200.965 15.381 26.6089 
-201.688 56.1112 25.8862 
-201.688 15.381 25.8862 
-202.675 56.1112 25.6217 
-202.675 15.381 25.6217 
-203.662 56.1112 25.8862 
-203.662 15.381 25.8862 
-204.385 56.1112 26.6089 
-204.385 15.381 26.6089 
-204.649 56.1112 27.596 
-204.649 15.381 27.596 
-204.385 56.1112 28.5831 
-204.385 15.381 28.5831 
-203.662 56.1112 29.3058 
-203.662 15.381 29.3058 
-202.675 56.1112 29.5703 
-202.675 15.381 29.5703 
-201.688 56.1112 29.3058 
-201.688 15.381 29.3058 
-202.675 61.0454 26.3706 
-194.793 61.0454 26.3706 
-194.793 61.0454 28.8214 
-202.675 61.0454 28.8214 
-202.675 58.4721 28.8214 
-195.66 58.4721 28.8214 
-195.66 58.4721 26.3706 
-202.675 58.4721 26.3706 
-194.793 59.0984 28.8214 
-194.793 59.0984 26.3706 
-210.558 61.0454 28.8214 
-210.558 61.0454 26.3706 
-209.69 58.4721 26.3706 
-209.69 58.4721 28.8214 
-210.558 59.0984 26.3706 
-210.558 59.0984 28.8214 
-203.844 60.7756 26.4243 
-203.844 62.8271 26.4243 
-203.844 62.8271 28.7677 
-203.844 60.7756 28.7677 
-201.501 60.7756 26.4243 
-201.501 62.8271 26.4243 
-201.501 60.7756 28.7677 
-201.501 62.8271 28.7677 
-200.834 64.4358 25.7547 
-200.834 63.2368 25.7547 
-200.834 63.2368 29.4373 
-200.834 64.4358 29.4373 
-204.516 63.2368 29.4373 
-204.516 64.4358 29.4373 
-204.516 63.2368 25.7547 
-204.516 64.4358 25.7547 
-197.148 60.7756 26.4243 
-197.148 62.8271 26.4243 
-197.148 62.8271 28.7677 
-197.148 60.7756 28.7677 
-194.804 60.7756 26.4243 
-194.804 62.8271 26.4243 
-194.804 60.7756 28.7677 
-194.804 62.8271 28.7677 
-194.137 64.4358 25.7547 
-194.137 63.2368 25.7547 
-194.137 63.2368 29.4373 
-194.137 64.4358 29.4373 
-197.82 63.2368 29.4373 
-197.82 64.4358 29.4373 
-197.82 63.2368 25.7547 
-197.82 64.4358 25.7547 
-208.203 60.7756 26.4243 
-208.203 60.7756 28.7677 
-208.203 62.8271 28.7677 
-208.203 62.8271 26.4243 
-210.546 60.7756 26.4243 
-210.546 62.8271 26.4243 
-210.546 60.7756 28.7677 
-210.546 62.8271 28.7677 
-211.213 64.4358 25.7547 
-211.213 64.4358 29.4373 
-211.213 63.2368 29.4373 
-211.213 63.2368 25.7547 
-207.531 64.4358 29.4373 
-207.531 63.2368 29.4373 
-207.531 63.2368 25.7547 
-207.531 64.4358 25.7547 
-256.152 55.8275 -30.404 
-256.152 56.5053 -30.404 
-256.152 56.5053 -24.788 
-256.152 55.8275 -24.788 
-250.536 55.8275 -30.404 
-250.536 56.5053 -30.404 
-250.536 56.5053 -24.788 
-250.536 55.8275 -24.788 
-254.332 69.4423 0 
-254.332 66.5081 0 
-254.332 60.8674 -11.0705 
-254.332 60.8674 -16.8291 
-252.356 69.4423 0 
-252.356 60.8674 -16.8291 
-252.356 60.8674 -11.0705 
-252.356 66.5081 0 
-254.332 59.0277 -32.4374 
-254.332 61.642 -32.4374 
-254.332 61.642 0 
-254.332 59.0277 0 
-252.356 61.642 -32.4374 
-252.356 61.642 0 
-252.356 59.0277 -32.4374 
-252.356 59.0277 0 
-250.899 15.4355 -29.0076 
-250.703 14.5746 -29.1205 
-250.295 14.5746 -27.596 
-250.521 15.4355 -27.596 
-250.703 14.5746 -26.0715 
-250.899 15.4355 -26.1844 
-251.819 14.5746 -24.9555 
-251.932 15.4355 -25.1511 
-253.344 14.5746 -24.547 
-253.344 15.4355 -24.7728 
-254.869 14.5746 -24.9555 
-254.756 15.4355 -25.1511 
-255.985 14.5746 -26.0715 
-255.789 15.4355 -26.1844 
-256.393 14.5746 -27.596 
-256.167 15.4355 -27.596 
-255.985 14.5746 -29.1205 
-255.789 15.4355 -29.0076 
-254.869 14.5746 -30.2365 
-254.756 15.4355 -30.0409 
-253.344 14.5746 -30.645 
-253.344 15.4355 -30.4192 
-251.819 14.5746 -30.2365 
-251.932 15.4355 -30.0409 
-255.769 57.6429 -30.0213 
-255.769 57.6429 -25.1707 
-255.297 57.2174 -25.6429 
-255.297 57.2174 -29.5491 
-254.978 56.1112 -25.9621 
-254.978 56.1112 -29.2299 
-250.919 57.6429 -30.0213 
-251.391 57.2174 -29.5491 
-251.71 56.1112 -29.2299 
-250.919 57.6429 -25.1707 
-251.391 57.2174 -25.6429 
-251.71 56.1112 -25.9621 
-255.769 59.3449 -25.1707 
-255.769 59.3449 -30.0213 
-250.919 59.3449 -30.0213 
-250.919 59.3449 -25.1707 
-251.634 56.1112 -28.5831 
-251.634 15.381 -28.5831 
-251.37 15.381 -27.596 
-251.37 56.1112 -27.596 
-251.634 15.381 -26.6089 
-251.634 56.1112 -26.6089 
-252.357 15.381 -25.8862 
-252.357 56.1112 -25.8862 
-253.344 15.381 -25.6217 
-253.344 56.1112 -25.6217 
-254.331 15.381 -25.8862 
-254.331 56.1112 -25.8862 
-255.054 15.381 -26.6089 
-255.054 56.1112 -26.6089 
-255.318 15.381 -27.596 
-255.318 56.1112 -27.596 
-255.054 15.381 -28.5831 
-255.054 56.1112 -28.5831 
-254.331 15.381 -29.3058 
-254.331 56.1112 -29.3058 
-253.344 15.381 -29.5703 
-253.344 56.1112 -29.5703 
-252.357 15.381 -29.3058 
-252.357 56.1112 -29.3058 
-253.344 61.0454 -26.3706 
-253.344 61.0454 -28.8214 
-245.462 61.0454 -28.8214 
-245.462 61.0454 -26.3706 
-253.344 58.4721 -28.8214 
-253.344 58.4721 -26.3706 
-246.329 58.4721 -26.3706 
-246.329 58.4721 -28.8214 
-245.462 59.0984 -26.3706 
-245.462 59.0984 -28.8214 
-261.226 61.0454 -26.3706 
-261.226 61.0454 -28.8214 
-260.359 58.4721 -28.8214 
-260.359 58.4721 -26.3706 
-261.226 59.0984 -28.8214 
-261.226 59.0984 -26.3706 
-254.513 60.7756 -26.4243 
-254.513 60.7756 -28.7677 
-254.513 62.8271 -28.7677 
-254.513 62.8271 -26.4243 
-252.17 60.7756 -26.4243 
-252.17 62.8271 -26.4243 
-252.17 60.7756 -28.7677 
-252.17 62.8271 -28.7677 
-251.503 64.4358 -25.7547 
-251.503 64.4358 -29.4373 
-251.503 63.2368 -29.4373 
-251.503 63.2368 -25.7547 
-255.185 64.4358 -29.4373 
-255.185 63.2368 -29.4373 
-255.185 63.2368 -25.7547 
-255.185 64.4358 -25.7547 
-247.816 60.7756 -26.4243 
-247.816 60.7756 -28.7677 
-247.816 62.8271 -28.7677 
-247.816 62.8271 -26.4243 
-245.473 60.7756 -26.4243 
-245.473 62.8271 -26.4243 
-245.473 60.7756 -28.7677 
-245.473 62.8271 -28.7677 
-244.806 64.4358 -25.7547 
-244.806 64.4358 -29.4373 
-244.806 63.2368 -29.4373 
-244.806 63.2368 -25.7547 
-248.488 64.4358 -29.4373 
-248.488 63.2368 -29.4373 
-248.488 63.2368 -25.7547 
-248.488 64.4358 -25.7547 
-258.872 60.7756 -26.4243 
-258.872 62.8271 -26.4243 
-258.872 62.8271 -28.7677 
-258.872 60.7756 -28.7677 
-261.215 60.7756 -26.4243 
-261.215 62.8271 -26.4243 
-261.215 60.7756 -28.7677 
-261.215 62.8271 -28.7677 
-261.882 64.4358 -25.7547 
-261.882 63.2368 -25.7547 
-261.882 63.2368 -29.4373 
-261.882 64.4358 -29.4373 
-258.2 63.2368 -29.4373 
-258.2 64.4358 -29.4373 
-258.2 63.2368 -25.7547 
-258.2 64.4358 -25.7547 
-254.332 60.8674 16.8291 
-254.332 60.8674 11.0705 
-252.356 60.8674 16.8291 
-252.356 60.8674 11.0705 
-254.332 59.0277 32.4374 
-254.332 61.642 32.4374 
-252.356 61.642 32.4374 
-252.356 59.0277 32.4374 
-254.513 73.8474 -1.17173 
-254.513 75.8989 -1.17173 
-254.513 75.8989 1.17173 
-254.513 73.8474 1.17173 
-252.17 73.8474 -1.17173 
-252.17 75.8989 -1.17173 
-252.17 73.8474 1.17173 
-252.17 75.8989 1.17173 
-251.503 77.5076 -1.84126 
-251.503 76.3086 -1.84126 
-251.503 76.3086 1.84126 
-251.503 77.5076 1.84126 
-255.185 76.3086 1.84126 
-255.185 77.5076 1.84126 
-255.185 76.3086 -1.84126 
-255.185 77.5076 -1.84126 
-253.344 74.1172 -1.22541 
-245.462 74.1172 -1.22541 
-245.462 74.1172 1.22539 
-253.344 74.1172 1.22539 
-253.344 71.5439 1.22539 
-246.329 71.5439 1.22539 
-246.329 71.5439 -1.22541 
-253.344 71.5439 -1.22541 
-245.462 72.1702 1.22539 
-245.462 72.1702 -1.22541 
-261.226 74.1172 1.22539 
-261.226 74.1172 -1.22541 
-260.359 71.5439 -1.22541 
-260.359 71.5439 1.22539 
-261.226 72.1702 -1.22541 
-261.226 72.1702 1.22539 
-254.513 68.5219 -1.17173 
-254.513 70.5733 -1.17173 
-254.513 70.5733 1.17173 
-254.513 68.5219 1.17173 
-252.17 68.5219 -1.17173 
-252.17 70.5733 -1.17173 
-252.17 68.5219 1.17173 
-252.17 70.5733 1.17173 
-251.503 72.1821 -1.84126 
-251.503 70.9831 -1.84126 
-251.503 70.9831 1.84126 
-251.503 72.1821 1.84126 
-255.185 70.9831 1.84126 
-255.185 72.1821 1.84126 
-255.185 70.9831 -1.84126 
-255.185 72.1821 -1.84126 
-247.816 73.8474 -1.17173 
-247.816 75.8989 -1.17173 
-247.816 75.8989 1.17173 
-247.816 73.8474 1.17173 
-245.473 73.8474 -1.17173 
-245.473 75.8989 -1.17173 
-245.473 73.8474 1.17173 
-245.473 75.8989 1.17173 
-244.806 77.5076 -1.84126 
-244.806 76.3086 -1.84126 
-244.806 76.3086 1.84126 
-244.806 77.5076 1.84126 
-248.488 76.3086 1.84126 
-248.488 77.5076 1.84126 
-248.488 76.3086 -1.84126 
-248.488 77.5076 -1.84126 
-258.872 73.8474 -1.17173 
-258.872 73.8474 1.17173 
-258.872 75.8989 1.17173 
-258.872 75.8989 -1.17173 
-261.215 73.8474 -1.17173 
-261.215 75.8989 -1.17173 
-261.215 73.8474 1.17173 
-261.215 75.8989 1.17173 
-261.882 77.5076 -1.84126 
-261.882 77.5076 1.84126 
-261.882 76.3086 1.84126 
-261.882 76.3086 -1.84126 
-258.2 77.5076 1.84126 
-258.2 76.3086 1.84126 
-258.2 76.3086 -1.84126 
-258.2 77.5076 -1.84126 
-256.152 55.8275 30.404 
-256.152 55.8275 24.788 
-256.152 56.5053 24.788 
-256.152 56.5053 30.404 
-250.536 55.8275 30.404 
-250.536 56.5053 30.404 
-250.536 56.5053 24.788 
-250.536 55.8275 24.788 
-250.899 15.4355 29.0076 
-250.521 15.4355 27.596 
-250.295 14.5746 27.596 
-250.703 14.5746 29.1205 
-250.899 15.4355 26.1844 
-250.703 14.5746 26.0715 
-251.932 15.4355 25.1511 
-251.819 14.5746 24.9555 
-253.344 15.4355 24.7728 
-253.344 14.5746 24.547 
-254.756 15.4355 25.1511 
-254.869 14.5746 24.9555 
-255.789 15.4355 26.1844 
-255.985 14.5746 26.0715 
-256.167 15.4355 27.596 
-256.393 14.5746 27.596 
-255.789 15.4355 29.0076 
-255.985 14.5746 29.1205 
-254.756 15.4355 30.0409 
-254.869 14.5746 30.2365 
-253.344 15.4355 30.4192 
-253.344 14.5746 30.645 
-251.932 15.4355 30.0409 
-251.819 14.5746 30.2365 
-255.769 57.6429 30.0213 
-255.297 57.2174 29.5491 
-255.297 57.2174 25.6429 
-255.769 57.6429 25.1707 
-254.978 56.1112 29.2299 
-254.978 56.1112 25.9621 
-250.919 57.6429 30.0213 
-251.391 57.2174 29.5491 
-251.71 56.1112 29.2299 
-250.919 57.6429 25.1707 
-251.391 57.2174 25.6429 
-251.71 56.1112 25.9621 
-255.769 59.3449 25.1707 
-255.769 59.3449 30.0213 
-250.919 59.3449 30.0213 
-250.919 59.3449 25.1707 
-251.634 56.1112 28.5831 
-251.37 56.1112 27.596 
-251.37 15.381 27.596 
-251.634 15.381 28.5831 
-251.634 56.1112 26.6089 
-251.634 15.381 26.6089 
-252.357 56.1112 25.8862 
-252.357 15.381 25.8862 
-253.344 56.1112 25.6217 
-253.344 15.381 25.6217 
-254.331 56.1112 25.8862 
-254.331 15.381 25.8862 
-255.054 56.1112 26.6089 
-255.054 15.381 26.6089 
-255.318 56.1112 27.596 
-255.318 15.381 27.596 
-255.054 56.1112 28.5831 
-255.054 15.381 28.5831 
-254.331 56.1112 29.3058 
-254.331 15.381 29.3058 
-253.344 56.1112 29.5703 
-253.344 15.381 29.5703 
-252.357 56.1112 29.3058 
-252.357 15.381 29.3058 
-253.344 61.0454 26.3706 
-245.462 61.0454 26.3706 
-245.462 61.0454 28.8214 
-253.344 61.0454 28.8214 
-253.344 58.4721 28.8214 
-246.329 58.4721 28.8214 
-246.329 58.4721 26.3706 
-253.344 58.4721 26.3706 
-245.462 59.0984 28.8214 
-245.462 59.0984 26.3706 
-261.226 61.0454 28.8214 
-261.226 61.0454 26.3706 
-260.359 58.4721 26.3706 
-260.359 58.4721 28.8214 
-261.226 59.0984 26.3706 
-261.226 59.0984 28.8214 
-254.513 60.7756 26.4243 
-254.513 62.8271 26.4243 
-254.513 62.8271 28.7677 
-254.513 60.7756 28.7677 
-252.17 60.7756 26.4243 
-252.17 62.8271 26.4243 
-252.17 60.7756 28.7677 
-252.17 62.8271 28.7677 
-251.503 64.4358 25.7547 
-251.503 63.2368 25.7547 
-251.503 63.2368 29.4373 
-251.503 64.4358 29.4373 
-255.185 63.2368 29.4373 
-255.185 64.4358 29.4373 
-255.185 63.2368 25.7547 
-255.185 64.4358 25.7547 
-247.816 60.7756 26.4243 
-247.816 62.8271 26.4243 
-247.816 62.8271 28.7677 
-247.816 60.7756 28.7677 
-245.473 60.7756 26.4243 
-245.473 62.8271 26.4243 
-245.473 60.7756 28.7677 
-245.473 62.8271 28.7677 
-244.806 64.4358 25.7547 
-244.806 63.2368 25.7547 
-244.806 63.2368 29.4373 
-244.806 64.4358 29.4373 
-248.488 63.2368 29.4373 
-248.488 64.4358 29.4373 
-248.488 63.2368 25.7547 
-248.488 64.4358 25.7547 
-258.872 60.7756 26.4243 
-258.872 60.7756 28.7677 
-258.872 62.8271 28.7677 
-258.872 62.8271 26.4243 
-261.215 60.7756 26.4243 
-261.215 62.8271 26.4243 
-261.215 60.7756 28.7677 
-261.215 62.8271 28.7677 
-261.882 64.4358 25.7547 
-261.882 64.4358 29.4373 
-261.882 63.2368 29.4373 
-261.882 63.2368 25.7547 
-258.2 64.4358 29.4373 
-258.2 63.2368 29.4373 
-258.2 63.2368 25.7547 
-258.2 64.4358 25.7547 
-306.821 55.8275 -30.404 
-306.821 56.5053 -30.404 
-306.821 56.5053 -24.788 
-306.821 55.8275 -24.788 
-301.205 55.8275 -30.404 
-301.205 56.5053 -30.404 
-301.205 56.5053 -24.788 
-301.205 55.8275 -24.788 
-305 69.4423 0 
-305 66.5081 0 
-305 60.8674 -11.0705 
-305 60.8674 -16.8291 
-303.025 69.4423 0 
-303.025 60.8674 -16.8291 
-303.025 60.8674 -11.0705 
-303.025 66.5081 0 
-305 59.0277 -32.4374 
-305 61.642 -32.4374 
-305 61.642 0 
-305 59.0277 0 
-303.025 61.642 -32.4374 
-303.025 61.642 0 
-303.025 59.0277 -32.4374 
-303.025 59.0277 0 
-301.568 15.4355 -29.0076 
-301.372 14.5746 -29.1205 
-300.964 14.5746 -27.596 
-301.19 15.4355 -27.596 
-301.372 14.5746 -26.0715 
-301.568 15.4355 -26.1844 
-302.488 14.5746 -24.9555 
-302.601 15.4355 -25.1511 
-304.013 14.5746 -24.547 
-304.013 15.4355 -24.7728 
-305.537 14.5746 -24.9555 
-305.424 15.4355 -25.1511 
-306.653 14.5746 -26.0715 
-306.458 15.4355 -26.1844 
-307.062 14.5746 -27.596 
-306.836 15.4355 -27.596 
-306.653 14.5746 -29.1205 
-306.458 15.4355 -29.0076 
-305.537 14.5746 -30.2365 
-305.424 15.4355 -30.0409 
-304.013 14.5746 -30.645 
-304.013 15.4355 -30.4192 
-302.488 14.5746 -30.2365 
-302.601 15.4355 -30.0409 
-306.438 57.6429 -30.0213 
-306.438 57.6429 -25.1707 
-305.966 57.2174 -25.6429 
-305.966 57.2174 -29.5491 
-305.647 56.1112 -25.9621 
-305.647 56.1112 -29.2299 
-301.588 57.6429 -30.0213 
-302.06 57.2174 -29.5491 
-302.379 56.1112 -29.2299 
-301.588 57.6429 -25.1707 
-302.06 57.2174 -25.6429 
-302.379 56.1112 -25.9621 
-306.438 59.3449 -25.1707 
-306.438 59.3449 -30.0213 
-301.588 59.3449 -30.0213 
-301.588 59.3449 -25.1707 
-302.303 56.1112 -28.5831 
-302.303 15.381 -28.5831 
-302.039 15.381 -27.596 
-302.039 56.1112 -27.596 
-302.303 15.381 -26.6089 
-302.303 56.1112 -26.6089 
-303.026 15.381 -25.8862 
-303.026 56.1112 -25.8862 
-304.013 15.381 -25.6217 
-304.013 56.1112 -25.6217 
-305 15.381 -25.8862 
-305 56.1112 -25.8862 
-305.723 15.381 -26.6089 
-305.723 56.1112 -26.6089 
-305.987 15.381 -27.596 
-305.987 56.1112 -27.596 
-305.723 15.381 -28.5831 
-305.723 56.1112 -28.5831 
-305 15.381 -29.3058 
-305 56.1112 -29.3058 
-304.013 15.381 -29.5703 
-304.013 56.1112 -29.5703 
-303.026 15.381 -29.3058 
-303.026 56.1112 -29.3058 
-304.013 61.0454 -26.3706 
-304.013 61.0454 -28.8214 
-296.13 61.0454 -28.8214 
-296.13 61.0454 -26.3706 
-304.013 58.4721 -28.8214 
-304.013 58.4721 -26.3706 
-296.998 58.4721 -26.3706 
-296.998 58.4721 -28.8214 
-296.13 59.0984 -26.3706 
-296.13 59.0984 -28.8214 
-311.895 61.0454 -26.3706 
-311.895 61.0454 -28.8214 
-311.028 58.4721 -28.8214 
-311.028 58.4721 -26.3706 
-311.895 59.0984 -28.8214 
-311.895 59.0984 -26.3706 
-305.182 60.7756 -26.4243 
-305.182 60.7756 -28.7677 
-305.182 62.8271 -28.7677 
-305.182 62.8271 -26.4243 
-302.839 60.7756 -26.4243 
-302.839 62.8271 -26.4243 
-302.839 60.7756 -28.7677 
-302.839 62.8271 -28.7677 
-302.172 64.4358 -25.7547 
-302.172 64.4358 -29.4373 
-302.172 63.2368 -29.4373 
-302.172 63.2368 -25.7547 
-305.854 64.4358 -29.4373 
-305.854 63.2368 -29.4373 
-305.854 63.2368 -25.7547 
-305.854 64.4358 -25.7547 
-298.485 60.7756 -26.4243 
-298.485 60.7756 -28.7677 
-298.485 62.8271 -28.7677 
-298.485 62.8271 -26.4243 
-296.142 60.7756 -26.4243 
-296.142 62.8271 -26.4243 
-296.142 60.7756 -28.7677 
-296.142 62.8271 -28.7677 
-295.475 64.4358 -25.7547 
-295.475 64.4358 -29.4373 
-295.475 63.2368 -29.4373 
-295.475 63.2368 -25.7547 
-299.157 64.4358 -29.4373 
-299.157 63.2368 -29.4373 
-299.157 63.2368 -25.7547 
-299.157 64.4358 -25.7547 
-309.54 60.7756 -26.4243 
-309.54 62.8271 -26.4243 
-309.54 62.8271 -28.7677 
-309.54 60.7756 -28.7677 
-311.884 60.7756 -26.4243 
-311.884 62.8271 -26.4243 
-311.884 60.7756 -28.7677 
-311.884 62.8271 -28.7677 
-312.551 64.4358 -25.7547 
-312.551 63.2368 -25.7547 
-312.551 63.2368 -29.4373 
-312.551 64.4358 -29.4373 
-308.868 63.2368 -29.4373 
-308.868 64.4358 -29.4373 
-308.868 63.2368 -25.7547 
-308.868 64.4358 -25.7547 
-305 60.8674 16.8291 
-305 60.8674 11.0705 
-303.025 60.8674 16.8291 
-303.025 60.8674 11.0705 
-305 59.0277 32.4374 
-305 61.642 32.4374 
-303.025 61.642 32.4374 
-303.025 59.0277 32.4374 
-305.182 73.8474 -1.17173 
-305.182 75.8989 -1.17173 
-305.182 75.8989 1.17173 
-305.182 73.8474 1.17173 
-302.839 73.8474 -1.17173 
-302.839 75.8989 -1.17173 
-302.839 73.8474 1.17173 
-302.839 75.8989 1.17173 
-302.172 77.5076 -1.84126 
-302.172 76.3086 -1.84126 
-302.172 76.3086 1.84126 
-302.172 77.5076 1.84126 
-305.854 76.3086 1.84126 
-305.854 77.5076 1.84126 
-305.854 76.3086 -1.84126 
-305.854 77.5076 -1.84126 
-304.013 74.1172 -1.22541 
-296.13 74.1172 -1.22541 
-296.13 74.1172 1.22539 
-304.013 74.1172 1.22539 
-304.013 71.5439 1.22539 
-296.998 71.5439 1.22539 
-296.998 71.5439 -1.22541 
